ply
format ascii 1.0
element vertex 712
property float x
property float y
property float z
property float red
property float green
property float blue
property float opacity
property float scale_0
property float scale_1
property float scale_2
end_header
1.9757 0.7107 -2.0000 0.850 0.800 0.650 0.900 0.0800 0.0800 0.0800
1.0578 3.6379 -2.0000 0.850 0.800 0.650 0.900 0.0800 0.0800 0.0800
1.1630 1.3541 -2.0000 0.850 0.800 0.650 0.900 0.0800 0.0800 0.0800
0.0903 2.7031 -2.0000 0.850 0.800 0.650 0.900 0.0800 0.0800 0.0800
-0.2291 5.1610 -2.0000 0.850 0.800 0.650 0.900 0.0800 0.0800 0.0800
1.9601 1.8323 -2.0000 0.850 0.800 0.650 0.900 0.0800 0.0800 0.0800
0.4841 3.6578 -2.0000 0.850 0.800 0.650 0.900 0.0800 0.0800 0.0800
0.9604 5.6855 -2.0000 0.850 0.800 0.650 0.900 0.0800 0.0800 0.0800
-1.1688 1.2662 -2.0000 0.850 0.800 0.650 0.900 0.0800 0.0800 0.0800
0.6417 0.9423 -2.0000 0.850 0.800 0.650 0.900 0.0800 0.0800 0.0800
-1.3047 0.4504 -2.0000 0.850 0.800 0.650 0.900 0.0800 0.0800 0.0800
-1.9893 2.7030 -2.0000 0.850 0.800 0.650 0.900 0.0800 0.0800 0.0800
0.3752 1.7476 -2.0000 0.850 0.800 0.650 0.900 0.0800 0.0800 0.0800
-1.0741 4.2417 -2.0000 0.850 0.800 0.650 0.900 0.0800 0.0800 0.0800
0.8120 2.7242 -2.0000 0.850 0.800 0.650 0.900 0.0800 0.0800 0.0800
0.7495 5.5435 -2.0000 0.850 0.800 0.650 0.900 0.0800 0.0800 0.0800
1.1513 3.7503 -2.0000 0.850 0.800 0.650 0.900 0.0800 0.0800 0.0800
0.6447 5.6020 -2.0000 0.850 0.800 0.650 0.900 0.0800 0.0800 0.0800
-0.2994 3.2674 -2.0000 0.850 0.800 0.650 0.900 0.0800 0.0800 0.0800
0.5905 5.4505 -2.0000 0.850 0.800 0.650 0.900 0.0800 0.0800 0.0800
1.3065 0.4285 -2.0000 0.850 0.800 0.650 0.900 0.0800 0.0800 0.0800
-1.3363 1.8457 -2.0000 0.850 0.800 0.650 0.900 0.0800 0.0800 0.0800
0.9958 3.4152 -2.0000 0.850 0.800 0.650 0.900 0.0800 0.0800 0.0800
-0.8456 0.7461 -2.0000 0.850 0.800 0.650 0.900 0.0800 0.0800 0.0800
0.7547 4.1984 -2.0000 0.850 0.800 0.650 0.900 0.0800 0.0800 0.0800
1.7707 3.0028 -2.0000 0.850 0.800 0.650 0.900 0.0800 0.0800 0.0800
-0.0248 0.4827 -2.0000 0.850 0.800 0.650 0.900 0.0800 0.0800 0.0800
-1.8406 2.5922 -2.0000 0.850 0.800 0.650 0.900 0.0800 0.0800 0.0800
-0.7107 1.5022 -2.0000 0.850 0.800 0.650 0.900 0.0800 0.0800 0.0800
-1.6347 5.7715 -2.0000 0.850 0.800 0.650 0.900 0.0800 0.0800 0.0800
1.3438 3.4512 -2.0000 0.850 0.800 0.650 0.900 0.0800 0.0800 0.0800
1.8031 5.9974 -2.0000 0.850 0.800 0.650 0.900 0.0800 0.0800 0.0800
0.6891 1.6171 -2.0000 0.850 0.800 0.650 0.900 0.0800 0.0800 0.0800
-1.8391 4.5376 -2.0000 0.850 0.800 0.650 0.900 0.0800 0.0800 0.0800
-0.1180 3.9091 -2.0000 0.850 0.800 0.650 0.900 0.0800 0.0800 0.0800
1.6643 1.0889 -2.0000 0.850 0.800 0.650 0.900 0.0800 0.0800 0.0800
0.3413 3.8087 -2.0000 0.850 0.800 0.650 0.900 0.0800 0.0800 0.0800
-0.0331 0.5475 -2.0000 0.850 0.800 0.650 0.900 0.0800 0.0800 0.0800
-0.6082 1.9999 -2.0000 0.850 0.800 0.650 0.900 0.0800 0.0800 0.0800
0.6805 5.1464 -2.0000 0.850 0.800 0.650 0.900 0.0800 0.0800 0.0800
-0.6808 4.1620 -2.0000 0.850 0.800 0.650 0.900 0.0800 0.0800 0.0800
-0.8471 5.6712 -2.0000 0.850 0.800 0.650 0.900 0.0800 0.0800 0.0800
1.2543 3.3006 -2.0000 0.850 0.800 0.650 0.900 0.0800 0.0800 0.0800
-0.1807 1.8871 -2.0000 0.850 0.800 0.650 0.900 0.0800 0.0800 0.0800
-0.7069 5.8211 -2.0000 0.850 0.800 0.650 0.900 0.0800 0.0800 0.0800
-0.3833 3.0876 -2.0000 0.850 0.800 0.650 0.900 0.0800 0.0800 0.0800
1.9525 3.9460 -2.0000 0.850 0.800 0.650 0.900 0.0800 0.0800 0.0800
0.1704 2.4795 -2.0000 0.850 0.800 0.650 0.900 0.0800 0.0800 0.0800
-1.2497 2.1707 -2.0000 0.850 0.800 0.650 0.900 0.0800 0.0800 0.0800
1.0258 3.7525 -2.0000 0.850 0.800 0.650 0.900 0.0800 0.0800 0.0800
1.0400 1.2213 -2.0000 0.850 0.800 0.650 0.900 0.0800 0.0800 0.0800
0.1969 5.5660 -2.0000 0.850 0.800 0.650 0.900 0.0800 0.0800 0.0800
-0.2475 4.1895 -2.0000 0.850 0.800 0.650 0.900 0.0800 0.0800 0.0800
-1.5143 5.8389 -2.0000 0.850 0.800 0.650 0.900 0.0800 0.0800 0.0800
0.4355 1.4358 -2.0000 0.850 0.800 0.650 0.900 0.0800 0.0800 0.0800
-1.3665 3.3050 -2.0000 0.850 0.800 0.650 0.900 0.0800 0.0800 0.0800
0.2090 0.5593 -2.0000 0.850 0.800 0.650 0.900 0.0800 0.0800 0.0800
1.9690 5.4776 -2.0000 0.850 0.800 0.650 0.900 0.0800 0.0800 0.0800
-0.1542 0.7048 -2.0000 0.850 0.800 0.650 0.900 0.0800 0.0800 0.0800
1.3286 2.9903 -2.0000 0.850 0.800 0.650 0.900 0.0800 0.0800 0.0800
0.8664 3.0532 -2.0000 0.850 0.800 0.650 0.900 0.0800 0.0800 0.0800
-0.9063 5.0083 -2.0000 0.850 0.800 0.650 0.900 0.0800 0.0800 0.0800
1.9210 1.4624 -2.0000 0.850 0.800 0.650 0.900 0.0800 0.0800 0.0800
0.2051 2.3015 -2.0000 0.850 0.800 0.650 0.900 0.0800 0.0800 0.0800
1.6875 3.0494 -2.0000 0.850 0.800 0.650 0.900 0.0800 0.0800 0.0800
1.5173 5.1842 -2.0000 0.850 0.800 0.650 0.900 0.0800 0.0800 0.0800
-0.8950 4.7400 -2.0000 0.850 0.800 0.650 0.900 0.0800 0.0800 0.0800
-0.3402 5.6055 -2.0000 0.850 0.800 0.650 0.900 0.0800 0.0800 0.0800
0.0310 4.9233 -2.0000 0.850 0.800 0.650 0.900 0.0800 0.0800 0.0800
-2.0000 1.6970 -0.8058 0.750 0.750 0.750 0.900 0.0800 0.0800 0.0800
-2.0000 3.5216 1.9956 0.750 0.750 0.750 0.900 0.0800 0.0800 0.0800
-2.0000 2.9378 -1.4056 0.750 0.750 0.750 0.900 0.0800 0.0800 0.0800
-2.0000 3.2315 -0.6195 0.750 0.750 0.750 0.900 0.0800 0.0800 0.0800
-2.0000 3.3115 0.1737 0.750 0.750 0.750 0.900 0.0800 0.0800 0.0800
-2.0000 2.7321 -0.7129 0.750 0.750 0.750 0.900 0.0800 0.0800 0.0800
-2.0000 1.1319 0.7900 0.750 0.750 0.750 0.900 0.0800 0.0800 0.0800
-2.0000 3.4308 -1.0658 0.750 0.750 0.750 0.900 0.0800 0.0800 0.0800
-2.0000 4.6533 -1.8254 0.750 0.750 0.750 0.900 0.0800 0.0800 0.0800
-2.0000 4.4682 0.8209 0.750 0.750 0.750 0.900 0.0800 0.0800 0.0800
-2.0000 4.8685 -0.4557 0.750 0.750 0.750 0.900 0.0800 0.0800 0.0800
-2.0000 3.9821 1.2830 0.750 0.750 0.750 0.900 0.0800 0.0800 0.0800
-2.0000 5.8849 -0.0187 0.750 0.750 0.750 0.900 0.0800 0.0800 0.0800
-2.0000 0.2221 0.0092 0.750 0.750 0.750 0.900 0.0800 0.0800 0.0800
-2.0000 3.5411 1.4788 0.750 0.750 0.750 0.900 0.0800 0.0800 0.0800
-2.0000 5.2451 -0.2388 0.750 0.750 0.750 0.900 0.0800 0.0800 0.0800
-2.0000 3.1557 -0.1723 0.750 0.750 0.750 0.900 0.0800 0.0800 0.0800
-2.0000 4.3347 -0.3601 0.750 0.750 0.750 0.900 0.0800 0.0800 0.0800
-2.0000 3.9287 -1.3826 0.750 0.750 0.750 0.900 0.0800 0.0800 0.0800
-2.0000 2.8169 1.8768 0.750 0.750 0.750 0.900 0.0800 0.0800 0.0800
-2.0000 2.0314 0.7708 0.750 0.750 0.750 0.900 0.0800 0.0800 0.0800
-2.0000 3.8990 1.4071 0.750 0.750 0.750 0.900 0.0800 0.0800 0.0800
-2.0000 5.1140 1.4374 0.750 0.750 0.750 0.900 0.0800 0.0800 0.0800
-2.0000 2.2801 -0.7334 0.750 0.750 0.750 0.900 0.0800 0.0800 0.0800
-2.0000 4.3123 1.0376 0.750 0.750 0.750 0.900 0.0800 0.0800 0.0800
-2.0000 5.2343 -1.8564 0.750 0.750 0.750 0.900 0.0800 0.0800 0.0800
-2.0000 0.4105 0.5246 0.750 0.750 0.750 0.900 0.0800 0.0800 0.0800
-2.0000 5.5256 1.9897 0.750 0.750 0.750 0.900 0.0800 0.0800 0.0800
-2.0000 4.4806 -0.2641 0.750 0.750 0.750 0.900 0.0800 0.0800 0.0800
-2.0000 0.5907 0.5350 0.750 0.750 0.750 0.900 0.0800 0.0800 0.0800
-2.0000 5.2355 -0.2253 0.750 0.750 0.750 0.900 0.0800 0.0800 0.0800
-2.0000 4.1640 1.6137 0.750 0.750 0.750 0.900 0.0800 0.0800 0.0800
-2.0000 0.2759 1.1846 0.750 0.750 0.750 0.900 0.0800 0.0800 0.0800
-2.0000 1.7602 -0.5006 0.750 0.750 0.750 0.900 0.0800 0.0800 0.0800
-2.0000 0.8734 0.1247 0.750 0.750 0.750 0.900 0.0800 0.0800 0.0800
-2.0000 3.3956 1.1701 0.750 0.750 0.750 0.900 0.0800 0.0800 0.0800
-2.0000 1.0199 -1.6841 0.750 0.750 0.750 0.900 0.0800 0.0800 0.0800
-2.0000 5.2250 0.4788 0.750 0.750 0.750 0.900 0.0800 0.0800 0.0800
-2.0000 1.4450 1.6513 0.750 0.750 0.750 0.900 0.0800 0.0800 0.0800
-2.0000 0.8587 -0.1554 0.750 0.750 0.750 0.900 0.0800 0.0800 0.0800
-2.0000 1.5239 -0.9787 0.750 0.750 0.750 0.900 0.0800 0.0800 0.0800
-2.0000 0.0564 1.2185 0.750 0.750 0.750 0.900 0.0800 0.0800 0.0800
-2.0000 5.4073 0.7104 0.750 0.750 0.750 0.900 0.0800 0.0800 0.0800
-2.0000 0.9479 -0.2331 0.750 0.750 0.750 0.900 0.0800 0.0800 0.0800
-2.0000 2.0734 0.3503 0.750 0.750 0.750 0.900 0.0800 0.0800 0.0800
-2.0000 3.8336 -0.3028 0.750 0.750 0.750 0.900 0.0800 0.0800 0.0800
-2.0000 1.5006 1.3812 0.750 0.750 0.750 0.900 0.0800 0.0800 0.0800
-2.0000 1.1953 -0.4612 0.750 0.750 0.750 0.900 0.0800 0.0800 0.0800
-2.0000 2.8992 -1.0512 0.750 0.750 0.750 0.900 0.0800 0.0800 0.0800
-2.0000 3.4315 0.2992 0.750 0.750 0.750 0.900 0.0800 0.0800 0.0800
-2.0000 5.9562 -0.8191 0.750 0.750 0.750 0.900 0.0800 0.0800 0.0800
-2.0000 5.8677 0.6329 0.750 0.750 0.750 0.900 0.0800 0.0800 0.0800
-2.0000 1.6469 0.2637 0.750 0.750 0.750 0.900 0.0800 0.0800 0.0800
-2.0000 4.1148 0.9787 0.750 0.750 0.750 0.900 0.0800 0.0800 0.0800
-2.0000 0.2943 0.4256 0.750 0.750 0.750 0.900 0.0800 0.0800 0.0800
-2.0000 2.9804 1.6166 0.750 0.750 0.750 0.900 0.0800 0.0800 0.0800
-2.0000 1.7172 1.1954 0.750 0.750 0.750 0.900 0.0800 0.0800 0.0800
-2.0000 3.6424 -0.5907 0.750 0.750 0.750 0.900 0.0800 0.0800 0.0800
-2.0000 3.8197 0.4836 0.750 0.750 0.750 0.900 0.0800 0.0800 0.0800
-2.0000 4.0666 0.8837 0.750 0.750 0.750 0.900 0.0800 0.0800 0.0800
-2.0000 3.9551 1.3533 0.750 0.750 0.750 0.900 0.0800 0.0800 0.0800
-2.0000 3.7695 1.6136 0.750 0.750 0.750 0.900 0.0800 0.0800 0.0800
-2.0000 3.8780 -0.7643 0.750 0.750 0.750 0.900 0.0800 0.0800 0.0800
-2.0000 2.6449 0.3183 0.750 0.750 0.750 0.900 0.0800 0.0800 0.0800
-2.0000 4.3942 -1.6395 0.750 0.750 0.750 0.900 0.0800 0.0800 0.0800
-2.0000 1.7707 0.9899 0.750 0.750 0.750 0.900 0.0800 0.0800 0.0800
-2.0000 1.0538 -1.4714 0.750 0.750 0.750 0.900 0.0800 0.0800 0.0800
-2.0000 3.2364 1.8860 0.750 0.750 0.750 0.900 0.0800 0.0800 0.0800
-2.0000 3.1851 1.6539 0.750 0.750 0.750 0.900 0.0800 0.0800 0.0800
-2.0000 4.9828 -0.9721 0.750 0.750 0.750 0.900 0.0800 0.0800 0.0800
-2.0000 4.9481 -0.0726 0.750 0.750 0.750 0.900 0.0800 0.0800 0.0800
-2.0000 4.8389 0.9862 0.750 0.750 0.750 0.900 0.0800 0.0800 0.0800
-2.0000 2.0323 -1.5393 0.750 0.750 0.750 0.900 0.0800 0.0800 0.0800
-2.0000 5.7774 -1.4370 0.750 0.750 0.750 0.900 0.0800 0.0800 0.0800
-2.0000 5.7990 1.4406 0.750 0.750 0.750 0.900 0.0800 0.0800 0.0800
-2.0000 4.3453 1.9198 0.750 0.750 0.750 0.900 0.0800 0.0800 0.0800
-2.0000 5.8036 1.2184 0.750 0.750 0.750 0.900 0.0800 0.0800 0.0800
-2.0000 2.1947 1.1627 0.750 0.750 0.750 0.900 0.0800 0.0800 0.0800
-2.0000 0.0835 0.1463 0.750 0.750 0.750 0.900 0.0800 0.0800 0.0800
-2.0000 2.7287 0.6913 0.750 0.750 0.750 0.900 0.0800 0.0800 0.0800
-2.0000 4.0340 0.3382 0.750 0.750 0.750 0.900 0.0800 0.0800 0.0800
-2.0000 4.9345 1.7612 0.750 0.750 0.750 0.900 0.0800 0.0800 0.0800
-2.0000 0.6501 -1.0647 0.750 0.750 0.750 0.900 0.0800 0.0800 0.0800
-2.0000 0.1501 1.5369 0.750 0.750 0.750 0.900 0.0800 0.0800 0.0800
-2.0000 3.3684 1.6610 0.750 0.750 0.750 0.900 0.0800 0.0800 0.0800
-2.0000 1.3282 -1.7471 0.750 0.750 0.750 0.900 0.0800 0.0800 0.0800
-2.0000 4.9431 1.6376 0.750 0.750 0.750 0.900 0.0800 0.0800 0.0800
-2.0000 1.8131 -0.3668 0.750 0.750 0.750 0.900 0.0800 0.0800 0.0800
-2.0000 0.8387 1.7850 0.750 0.750 0.750 0.900 0.0800 0.0800 0.0800
-2.0000 1.8262 -0.0295 0.750 0.750 0.750 0.900 0.0800 0.0800 0.0800
-2.0000 0.5832 1.5490 0.750 0.750 0.750 0.900 0.0800 0.0800 0.0800
-2.0000 0.8140 -0.1854 0.750 0.750 0.750 0.900 0.0800 0.0800 0.0800
-2.0000 4.0229 0.9726 0.750 0.750 0.750 0.900 0.0800 0.0800 0.0800
-2.0000 5.6758 -0.3235 0.750 0.750 0.750 0.900 0.0800 0.0800 0.0800
-2.0000 4.4536 -1.3819 0.750 0.750 0.750 0.900 0.0800 0.0800 0.0800
-2.0000 2.4893 -1.6039 0.750 0.750 0.750 0.900 0.0800 0.0800 0.0800
-2.0000 2.9361 -0.3675 0.750 0.750 0.750 0.900 0.0800 0.0800 0.0800
-2.0000 5.7091 -1.8691 0.750 0.750 0.750 0.900 0.0800 0.0800 0.0800
-2.0000 2.2232 -0.2265 0.750 0.750 0.750 0.900 0.0800 0.0800 0.0800
-2.0000 5.7033 1.4218 0.750 0.750 0.750 0.900 0.0800 0.0800 0.0800
-2.0000 0.5961 0.7427 0.750 0.750 0.750 0.900 0.0800 0.0800 0.0800
-2.0000 3.2668 1.9114 0.750 0.750 0.750 0.900 0.0800 0.0800 0.0800
-2.0000 2.1520 -0.4074 0.750 0.750 0.750 0.900 0.0800 0.0800 0.0800
-2.0000 1.1389 -1.5114 0.750 0.750 0.750 0.900 0.0800 0.0800 0.0800
-2.0000 5.0882 -0.1811 0.750 0.750 0.750 0.900 0.0800 0.0800 0.0800
-2.0000 3.9766 0.5668 0.750 0.750 0.750 0.900 0.0800 0.0800 0.0800
-2.0000 3.5829 -1.9146 0.750 0.750 0.750 0.900 0.0800 0.0800 0.0800
-2.0000 4.7208 -1.0257 0.750 0.750 0.750 0.900 0.0800 0.0800 0.0800
-2.0000 0.7555 0.2583 0.750 0.750 0.750 0.900 0.0800 0.0800 0.0800
-2.0000 0.4117 1.0606 0.750 0.750 0.750 0.900 0.0800 0.0800 0.0800
-2.0000 1.2429 -1.1362 0.750 0.750 0.750 0.900 0.0800 0.0800 0.0800
-2.0000 5.2182 -0.6858 0.750 0.750 0.750 0.900 0.0800 0.0800 0.0800
-2.0000 0.8853 1.6021 0.750 0.750 0.750 0.900 0.0800 0.0800 0.0800
-2.0000 0.0170 1.4336 0.750 0.750 0.750 0.900 0.0800 0.0800 0.0800
-2.0000 0.8681 -1.4800 0.750 0.750 0.750 0.900 0.0800 0.0800 0.0800
-2.0000 1.5039 -1.3020 0.750 0.750 0.750 0.900 0.0800 0.0800 0.0800
-2.0000 3.9663 -1.8969 0.750 0.750 0.750 0.900 0.0800 0.0800 0.0800
-2.0000 0.0892 1.1599 0.750 0.750 0.750 0.900 0.0800 0.0800 0.0800
-2.0000 1.4276 -0.7049 0.750 0.750 0.750 0.900 0.0800 0.0800 0.0800
-2.0000 1.0455 -1.7904 0.750 0.750 0.750 0.900 0.0800 0.0800 0.0800
-2.0000 4.4503 0.1043 0.750 0.750 0.750 0.900 0.0800 0.0800 0.0800
-2.0000 4.4740 -0.0950 0.750 0.750 0.750 0.900 0.0800 0.0800 0.0800
-2.0000 4.6681 0.0530 0.750 0.750 0.750 0.900 0.0800 0.0800 0.0800
-2.0000 0.6543 0.0154 0.750 0.750 0.750 0.900 0.0800 0.0800 0.0800
-2.0000 5.6725 -1.8265 0.750 0.750 0.750 0.900 0.0800 0.0800 0.0800
-2.0000 4.6994 1.4679 0.750 0.750 0.750 0.900 0.0800 0.0800 0.0800
-2.0000 3.1287 -0.1678 0.750 0.750 0.750 0.900 0.0800 0.0800 0.0800
-2.0000 5.7842 -1.7567 0.750 0.750 0.750 0.900 0.0800 0.0800 0.0800
-2.0000 2.8739 -0.3935 0.750 0.750 0.750 0.900 0.0800 0.0800 0.0800
-2.0000 4.1166 -0.0389 0.750 0.750 0.750 0.900 0.0800 0.0800 0.0800
-2.0000 5.4582 -1.7060 0.750 0.750 0.750 0.900 0.0800 0.0800 0.0800
-2.0000 0.4847 0.4332 0.750 0.750 0.750 0.900 0.0800 0.0800 0.0800
-2.0000 0.3941 -0.8999 0.750 0.750 0.750 0.900 0.0800 0.0800 0.0800
-2.0000 3.7985 0.1934 0.750 0.750 0.750 0.900 0.0800 0.0800 0.0800
-2.0000 1.9511 1.9785 0.750 0.750 0.750 0.900 0.0800 0.0800 0.0800
-2.0000 3.1833 -0.1851 0.750 0.750 0.750 0.900 0.0800 0.0800 0.0800
-2.0000 3.6326 -1.6033 0.750 0.750 0.750 0.900 0.0800 0.0800 0.0800
-2.0000 4.2107 1.4112 0.750 0.750 0.750 0.900 0.0800 0.0800 0.0800
-2.0000 3.9055 1.0759 0.750 0.750 0.750 0.900 0.0800 0.0800 0.0800
-2.0000 4.3250 -1.1399 0.750 0.750 0.750 0.900 0.0800 0.0800 0.0800
-2.0000 2.7093 -1.0860 0.750 0.750 0.750 0.900 0.0800 0.0800 0.0800
-2.0000 2.0336 -0.1860 0.750 0.750 0.750 0.900 0.0800 0.0800 0.0800
-2.0000 2.4959 -1.6197 0.750 0.750 0.750 0.900 0.0800 0.0800 0.0800
-2.0000 2.5606 0.6604 0.750 0.750 0.750 0.900 0.0800 0.0800 0.0800
-2.0000 2.2458 -1.3894 0.750 0.750 0.750 0.900 0.0800 0.0800 0.0800
-2.0000 5.5379 -1.7315 0.750 0.750 0.750 0.900 0.0800 0.0800 0.0800
-2.0000 4.9906 -1.6271 0.750 0.750 0.750 0.900 0.0800 0.0800 0.0800
-2.0000 0.5794 0.9552 0.750 0.750 0.750 0.900 0.0800 0.0800 0.0800
-2.0000 4.8706 0.2255 0.750 0.750 0.750 0.900 0.0800 0.0800 0.0800
-2.0000 3.5188 0.2463 0.750 0.750 0.750 0.900 0.0800 0.0800 0.0800
-2.0000 1.9779 -1.5111 0.750 0.750 0.750 0.900 0.0800 0.0800 0.0800
-2.0000 2.1216 0.6614 0.750 0.750 0.750 0.900 0.0800 0.0800 0.0800
-2.0000 4.5017 1.4724 0.750 0.750 0.750 0.900 0.0800 0.0800 0.0800
-2.0000 4.3264 1.8736 0.750 0.750 0.750 0.900 0.0800 0.0800 0.0800
-2.0000 3.6025 -0.5934 0.750 0.750 0.750 0.900 0.0800 0.0800 0.0800
-2.0000 3.4675 -1.1490 0.750 0.750 0.750 0.900 0.0800 0.0800 0.0800
-2.0000 3.9404 -1.1030 0.750 0.750 0.750 0.900 0.0800 0.0800 0.0800
-2.0000 0.6493 1.3815 0.750 0.750 0.750 0.900 0.0800 0.0800 0.0800
-2.0000 2.2054 1.0504 0.750 0.750 0.750 0.900 0.0800 0.0800 0.0800
-2.0000 3.4446 1.2289 0.750 0.750 0.750 0.900 0.0800 0.0800 0.0800
-2.0000 5.0709 1.8982 0.750 0.750 0.750 0.900 0.0800 0.0800 0.0800
-2.0000 4.9106 0.4543 0.750 0.750 0.750 0.900 0.0800 0.0800 0.0800
-2.0000 3.8562 -1.8950 0.750 0.750 0.750 0.900 0.0800 0.0800 0.0800
-2.0000 5.5745 1.3178 0.750 0.750 0.750 0.900 0.0800 0.0800 0.0800
-2.0000 1.6047 -1.2783 0.750 0.750 0.750 0.900 0.0800 0.0800 0.0800
-2.0000 4.2162 -0.7641 0.750 0.750 0.750 0.900 0.0800 0.0800 0.0800
-2.0000 2.0389 -1.9756 0.750 0.750 0.750 0.900 0.0800 0.0800 0.0800
-2.0000 5.2192 0.2653 0.750 0.750 0.750 0.900 0.0800 0.0800 0.0800
-2.0000 2.4047 -1.4325 0.750 0.750 0.750 0.900 0.0800 0.0800 0.0800
-2.0000 3.7990 -1.8774 0.750 0.750 0.750 0.900 0.0800 0.0800 0.0800
-2.0000 4.4767 -1.1395 0.750 0.750 0.750 0.900 0.0800 0.0800 0.0800
-2.0000 2.5190 -0.6364 0.750 0.750 0.750 0.900 0.0800 0.0800 0.0800
-2.0000 2.2203 0.8864 0.750 0.750 0.750 0.900 0.0800 0.0800 0.0800
-2.0000 4.6610 0.2704 0.750 0.750 0.750 0.900 0.0800 0.0800 0.0800
-2.0000 0.5097 -1.7896 0.750 0.750 0.750 0.900 0.0800 0.0800 0.0800
-2.0000 0.9445 0.4714 0.750 0.750 0.750 0.900 0.0800 0.0800 0.0800
-2.0000 4.0438 -0.9116 0.750 0.750 0.750 0.900 0.0800 0.0800 0.0800
-2.0000 3.9716 -0.0574 0.750 0.750 0.750 0.900 0.0800 0.0800 0.0800
-2.0000 2.6523 -0.9073 0.750 0.750 0.750 0.900 0.0800 0.0800 0.0800
-2.0000 4.5297 -1.5447 0.750 0.750 0.750 0.900 0.0800 0.0800 0.0800
-2.0000 2.5795 -0.8670 0.750 0.750 0.750 0.900 0.0800 0.0800 0.0800
-2.0000 4.0709 -0.0535 0.750 0.750 0.750 0.900 0.0800 0.0800 0.0800
-2.0000 4.0028 -1.8183 0.750 0.750 0.750 0.900 0.0800 0.0800 0.0800
-2.0000 2.3716 0.3973 0.750 0.750 0.750 0.900 0.0800 0.0800 0.0800
-2.0000 0.0461 -0.7943 0.750 0.750 0.750 0.900 0.0800 0.0800 0.0800
-2.0000 1.2674 -1.4511 0.750 0.750 0.750 0.900 0.0800 0.0800 0.0800
-2.0000 1.5331 -0.6875 0.750 0.750 0.750 0.900 0.0800 0.0800 0.0800
-2.0000 0.0464 0.9881 0.750 0.750 0.750 0.900 0.0800 0.0800 0.0800
-2.0000 1.0542 -0.4792 0.750 0.750 0.750 0.900 0.0800 0.0800 0.0800
-2.0000 4.2220 0.0010 0.750 0.750 0.750 0.900 0.0800 0.0800 0.0800
-2.0000 5.0001 1.2248 0.750 0.750 0.750 0.900 0.0800 0.0800 0.0800
-2.0000 0.4325 1.4471 0.750 0.750 0.750 0.900 0.0800 0.0800 0.0800
-2.0000 0.2538 -1.9250 0.750 0.750 0.750 0.900 0.0800 0.0800 0.0800
-2.0000 5.5270 1.4484 0.750 0.750 0.750 0.900 0.0800 0.0800 0.0800
-2.0000 3.4546 0.2936 0.750 0.750 0.750 0.900 0.0800 0.0800 0.0800
-2.0000 4.2570 -0.3292 0.750 0.750 0.750 0.900 0.0800 0.0800 0.0800
-2.0000 0.6910 -1.9166 0.750 0.750 0.750 0.900 0.0800 0.0800 0.0800
-2.0000 1.9486 1.2053 0.750 0.750 0.750 0.900 0.0800 0.0800 0.0800
-2.0000 3.7088 1.3281 0.750 0.750 0.750 0.900 0.0800 0.0800 0.0800
-2.0000 5.5186 -1.6475 0.750 0.750 0.750 0.900 0.0800 0.0800 0.0800
2.0000 5.0669 -1.0267 0.750 0.750 0.750 0.900 0.0800 0.0800 0.0800
2.0000 3.5332 0.0959 0.750 0.750 0.750 0.900 0.0800 0.0800 0.0800
2.0000 2.3746 -0.7589 0.750 0.750 0.750 0.900 0.0800 0.0800 0.0800
2.0000 2.0371 -0.6677 0.750 0.750 0.750 0.900 0.0800 0.0800 0.0800
2.0000 1.0088 0.0419 0.750 0.750 0.750 0.900 0.0800 0.0800 0.0800
2.0000 0.6842 0.0398 0.750 0.750 0.750 0.900 0.0800 0.0800 0.0800
2.0000 5.4355 -0.6025 0.750 0.750 0.750 0.900 0.0800 0.0800 0.0800
2.0000 4.3643 1.2758 0.750 0.750 0.750 0.900 0.0800 0.0800 0.0800
2.0000 4.8902 -1.0549 0.750 0.750 0.750 0.900 0.0800 0.0800 0.0800
2.0000 0.8787 -1.2109 0.750 0.750 0.750 0.900 0.0800 0.0800 0.0800
2.0000 3.6144 1.0409 0.750 0.750 0.750 0.900 0.0800 0.0800 0.0800
2.0000 3.9331 -1.2914 0.750 0.750 0.750 0.900 0.0800 0.0800 0.0800
2.0000 4.6371 -0.0235 0.750 0.750 0.750 0.900 0.0800 0.0800 0.0800
2.0000 4.5267 1.0395 0.750 0.750 0.750 0.900 0.0800 0.0800 0.0800
2.0000 2.6934 1.6966 0.750 0.750 0.750 0.900 0.0800 0.0800 0.0800
2.0000 3.3870 0.5412 0.750 0.750 0.750 0.900 0.0800 0.0800 0.0800
2.0000 3.7471 1.4570 0.750 0.750 0.750 0.900 0.0800 0.0800 0.0800
2.0000 3.7633 -1.3962 0.750 0.750 0.750 0.900 0.0800 0.0800 0.0800
2.0000 0.4097 -0.2312 0.750 0.750 0.750 0.900 0.0800 0.0800 0.0800
2.0000 1.8169 -0.9013 0.750 0.750 0.750 0.900 0.0800 0.0800 0.0800
2.0000 0.3370 0.0293 0.750 0.750 0.750 0.900 0.0800 0.0800 0.0800
2.0000 1.8624 -0.1923 0.750 0.750 0.750 0.900 0.0800 0.0800 0.0800
2.0000 0.3413 1.3268 0.750 0.750 0.750 0.900 0.0800 0.0800 0.0800
2.0000 0.4604 1.4570 0.750 0.750 0.750 0.900 0.0800 0.0800 0.0800
2.0000 5.1318 0.4600 0.750 0.750 0.750 0.900 0.0800 0.0800 0.0800
2.0000 3.0424 -0.1492 0.750 0.750 0.750 0.900 0.0800 0.0800 0.0800
2.0000 3.3259 1.1673 0.750 0.750 0.750 0.900 0.0800 0.0800 0.0800
2.0000 5.3753 -0.2011 0.750 0.750 0.750 0.900 0.0800 0.0800 0.0800
2.0000 4.8589 0.6073 0.750 0.750 0.750 0.900 0.0800 0.0800 0.0800
2.0000 1.9292 -0.0975 0.750 0.750 0.750 0.900 0.0800 0.0800 0.0800
2.0000 0.9052 -1.7525 0.750 0.750 0.750 0.900 0.0800 0.0800 0.0800
2.0000 0.6210 1.5965 0.750 0.750 0.750 0.900 0.0800 0.0800 0.0800
2.0000 2.0606 0.8573 0.750 0.750 0.750 0.900 0.0800 0.0800 0.0800
2.0000 3.0273 -1.3098 0.750 0.750 0.750 0.900 0.0800 0.0800 0.0800
2.0000 1.4865 -0.2490 0.750 0.750 0.750 0.900 0.0800 0.0800 0.0800
2.0000 2.6365 0.0910 0.750 0.750 0.750 0.900 0.0800 0.0800 0.0800
2.0000 0.9525 -0.5086 0.750 0.750 0.750 0.900 0.0800 0.0800 0.0800
2.0000 1.6974 -0.3649 0.750 0.750 0.750 0.900 0.0800 0.0800 0.0800
2.0000 2.0302 0.3915 0.750 0.750 0.750 0.900 0.0800 0.0800 0.0800
2.0000 4.7354 0.5892 0.750 0.750 0.750 0.900 0.0800 0.0800 0.0800
2.0000 0.3955 -1.6220 0.750 0.750 0.750 0.900 0.0800 0.0800 0.0800
2.0000 4.0703 -0.8634 0.750 0.750 0.750 0.900 0.0800 0.0800 0.0800
2.0000 4.3424 0.6263 0.750 0.750 0.750 0.900 0.0800 0.0800 0.0800
2.0000 5.4381 1.4931 0.750 0.750 0.750 0.900 0.0800 0.0800 0.0800
2.0000 2.0002 0.3310 0.750 0.750 0.750 0.900 0.0800 0.0800 0.0800
2.0000 0.8486 -0.6007 0.750 0.750 0.750 0.900 0.0800 0.0800 0.0800
2.0000 5.8062 0.7939 0.750 0.750 0.750 0.900 0.0800 0.0800 0.0800
2.0000 2.3517 0.3802 0.750 0.750 0.750 0.900 0.0800 0.0800 0.0800
2.0000 5.6280 -0.7617 0.750 0.750 0.750 0.900 0.0800 0.0800 0.0800
2.0000 2.2601 1.1666 0.750 0.750 0.750 0.900 0.0800 0.0800 0.0800
2.0000 4.8791 0.6805 0.750 0.750 0.750 0.900 0.0800 0.0800 0.0800
2.0000 4.9738 0.9551 0.750 0.750 0.750 0.900 0.0800 0.0800 0.0800
2.0000 4.1125 0.1056 0.750 0.750 0.750 0.900 0.0800 0.0800 0.0800
2.0000 3.8761 -0.3064 0.750 0.750 0.750 0.900 0.0800 0.0800 0.0800
2.0000 2.1710 -0.5496 0.750 0.750 0.750 0.900 0.0800 0.0800 0.0800
2.0000 1.0816 -1.1432 0.750 0.750 0.750 0.900 0.0800 0.0800 0.0800
2.0000 5.6860 -0.0549 0.750 0.750 0.750 0.900 0.0800 0.0800 0.0800
2.0000 1.3593 -1.4497 0.750 0.750 0.750 0.900 0.0800 0.0800 0.0800
2.0000 0.4630 1.3777 0.750 0.750 0.750 0.900 0.0800 0.0800 0.0800
2.0000 0.6068 1.0835 0.750 0.750 0.750 0.900 0.0800 0.0800 0.0800
2.0000 5.0107 1.5347 0.750 0.750 0.750 0.900 0.0800 0.0800 0.0800
2.0000 0.2265 -0.6529 0.750 0.750 0.750 0.900 0.0800 0.0800 0.0800
2.0000 4.5978 -1.4758 0.750 0.750 0.750 0.900 0.0800 0.0800 0.0800
2.0000 2.2603 -1.3510 0.750 0.750 0.750 0.900 0.0800 0.0800 0.0800
2.0000 4.9881 1.0844 0.750 0.750 0.750 0.900 0.0800 0.0800 0.0800
2.0000 4.8543 -1.3378 0.750 0.750 0.750 0.900 0.0800 0.0800 0.0800
2.0000 2.6260 -0.3566 0.750 0.750 0.750 0.900 0.0800 0.0800 0.0800
2.0000 4.0582 -1.0499 0.750 0.750 0.750 0.900 0.0800 0.0800 0.0800
2.0000 2.6652 -0.8603 0.750 0.750 0.750 0.900 0.0800 0.0800 0.0800
2.0000 4.4912 -0.2043 0.750 0.750 0.750 0.900 0.0800 0.0800 0.0800
2.0000 3.2041 -0.7621 0.750 0.750 0.750 0.900 0.0800 0.0800 0.0800
2.0000 4.8517 -0.1239 0.750 0.750 0.750 0.900 0.0800 0.0800 0.0800
2.0000 5.0107 -0.5286 0.750 0.750 0.750 0.900 0.0800 0.0800 0.0800
2.0000 5.6828 1.9378 0.750 0.750 0.750 0.900 0.0800 0.0800 0.0800
2.0000 2.7701 -0.8729 0.750 0.750 0.750 0.900 0.0800 0.0800 0.0800
2.0000 2.2912 0.1098 0.750 0.750 0.750 0.900 0.0800 0.0800 0.0800
2.0000 5.7976 1.2676 0.750 0.750 0.750 0.900 0.0800 0.0800 0.0800
2.0000 4.8076 -1.4464 0.750 0.750 0.750 0.900 0.0800 0.0800 0.0800
2.0000 1.5000 0.5647 0.750 0.750 0.750 0.900 0.0800 0.0800 0.0800
2.0000 5.2447 0.2182 0.750 0.750 0.750 0.900 0.0800 0.0800 0.0800
2.0000 0.6155 1.3836 0.750 0.750 0.750 0.900 0.0800 0.0800 0.0800
2.0000 5.1070 -0.8597 0.750 0.750 0.750 0.900 0.0800 0.0800 0.0800
2.0000 4.5787 -0.9088 0.750 0.750 0.750 0.900 0.0800 0.0800 0.0800
2.0000 5.4318 -1.4106 0.750 0.750 0.750 0.900 0.0800 0.0800 0.0800
2.0000 2.6248 1.7857 0.750 0.750 0.750 0.900 0.0800 0.0800 0.0800
2.0000 1.3322 -0.1955 0.750 0.750 0.750 0.900 0.0800 0.0800 0.0800
2.0000 2.0975 -1.8933 0.750 0.750 0.750 0.900 0.0800 0.0800 0.0800
2.0000 0.3195 0.0080 0.750 0.750 0.750 0.900 0.0800 0.0800 0.0800
2.0000 1.4147 1.9781 0.750 0.750 0.750 0.900 0.0800 0.0800 0.0800
2.0000 2.2495 -1.8872 0.750 0.750 0.750 0.900 0.0800 0.0800 0.0800
2.0000 5.5850 1.3567 0.750 0.750 0.750 0.900 0.0800 0.0800 0.0800
2.0000 3.8998 1.1655 0.750 0.750 0.750 0.900 0.0800 0.0800 0.0800
2.0000 0.8256 -0.8525 0.750 0.750 0.750 0.900 0.0800 0.0800 0.0800
2.0000 4.9786 0.7843 0.750 0.750 0.750 0.900 0.0800 0.0800 0.0800
2.0000 0.8328 0.8221 0.750 0.750 0.750 0.900 0.0800 0.0800 0.0800
2.0000 2.6916 -1.9790 0.750 0.750 0.750 0.900 0.0800 0.0800 0.0800
2.0000 0.4754 -0.9763 0.750 0.750 0.750 0.900 0.0800 0.0800 0.0800
2.0000 5.0098 0.1952 0.750 0.750 0.750 0.900 0.0800 0.0800 0.0800
2.0000 4.3634 0.1111 0.750 0.750 0.750 0.900 0.0800 0.0800 0.0800
2.0000 0.6671 -0.8476 0.750 0.750 0.750 0.900 0.0800 0.0800 0.0800
2.0000 1.8069 -1.8090 0.750 0.750 0.750 0.900 0.0800 0.0800 0.0800
2.0000 2.5190 1.1756 0.750 0.750 0.750 0.900 0.0800 0.0800 0.0800
2.0000 2.7427 -1.5566 0.750 0.750 0.750 0.900 0.0800 0.0800 0.0800
2.0000 5.4309 0.3870 0.750 0.750 0.750 0.900 0.0800 0.0800 0.0800
2.0000 0.0986 0.0615 0.750 0.750 0.750 0.900 0.0800 0.0800 0.0800
2.0000 1.4516 -1.4257 0.750 0.750 0.750 0.900 0.0800 0.0800 0.0800
2.0000 2.5754 0.4592 0.750 0.750 0.750 0.900 0.0800 0.0800 0.0800
2.0000 1.4434 -0.3337 0.750 0.750 0.750 0.900 0.0800 0.0800 0.0800
2.0000 3.9862 -1.6575 0.750 0.750 0.750 0.900 0.0800 0.0800 0.0800
2.0000 5.8479 -1.7293 0.750 0.750 0.750 0.900 0.0800 0.0800 0.0800
2.0000 3.1564 0.0293 0.750 0.750 0.750 0.900 0.0800 0.0800 0.0800
2.0000 5.9300 0.2166 0.750 0.750 0.750 0.900 0.0800 0.0800 0.0800
2.0000 2.3427 -0.1195 0.750 0.750 0.750 0.900 0.0800 0.0800 0.0800
2.0000 3.8140 1.9242 0.750 0.750 0.750 0.900 0.0800 0.0800 0.0800
2.0000 1.5219 -1.9350 0.750 0.750 0.750 0.900 0.0800 0.0800 0.0800
2.0000 4.7311 -0.6208 0.750 0.750 0.750 0.900 0.0800 0.0800 0.0800
2.0000 4.3976 0.5130 0.750 0.750 0.750 0.900 0.0800 0.0800 0.0800
2.0000 4.6290 0.9407 0.750 0.750 0.750 0.900 0.0800 0.0800 0.0800
2.0000 1.9951 -1.8227 0.750 0.750 0.750 0.900 0.0800 0.0800 0.0800
2.0000 3.2761 1.2540 0.750 0.750 0.750 0.900 0.0800 0.0800 0.0800
2.0000 1.0505 1.1166 0.750 0.750 0.750 0.900 0.0800 0.0800 0.0800
2.0000 2.7877 0.7816 0.750 0.750 0.750 0.900 0.0800 0.0800 0.0800
2.0000 3.7904 1.2460 0.750 0.750 0.750 0.900 0.0800 0.0800 0.0800
2.0000 0.3786 1.1048 0.750 0.750 0.750 0.900 0.0800 0.0800 0.0800
2.0000 2.7461 -0.8262 0.750 0.750 0.750 0.900 0.0800 0.0800 0.0800
2.0000 0.2628 -1.2021 0.750 0.750 0.750 0.900 0.0800 0.0800 0.0800
2.0000 0.2514 1.7335 0.750 0.750 0.750 0.900 0.0800 0.0800 0.0800
2.0000 3.0923 1.9565 0.750 0.750 0.750 0.900 0.0800 0.0800 0.0800
2.0000 3.2582 -0.9867 0.750 0.750 0.750 0.900 0.0800 0.0800 0.0800
2.0000 4.5197 -1.2356 0.750 0.750 0.750 0.900 0.0800 0.0800 0.0800
2.0000 2.1418 1.1234 0.750 0.750 0.750 0.900 0.0800 0.0800 0.0800
2.0000 5.1948 -0.6723 0.750 0.750 0.750 0.900 0.0800 0.0800 0.0800
2.0000 0.7469 -0.5279 0.750 0.750 0.750 0.900 0.0800 0.0800 0.0800
2.0000 5.3369 0.9732 0.750 0.750 0.750 0.900 0.0800 0.0800 0.0800
2.0000 5.3678 -0.4534 0.750 0.750 0.750 0.900 0.0800 0.0800 0.0800
2.0000 5.8423 -0.0152 0.750 0.750 0.750 0.900 0.0800 0.0800 0.0800
2.0000 2.9851 1.6972 0.750 0.750 0.750 0.900 0.0800 0.0800 0.0800
2.0000 3.1157 1.2046 0.750 0.750 0.750 0.900 0.0800 0.0800 0.0800
2.0000 4.3625 -1.6843 0.750 0.750 0.750 0.900 0.0800 0.0800 0.0800
2.0000 3.6147 1.2894 0.750 0.750 0.750 0.900 0.0800 0.0800 0.0800
2.0000 3.2728 -0.7152 0.750 0.750 0.750 0.900 0.0800 0.0800 0.0800
2.0000 0.4804 0.6437 0.750 0.750 0.750 0.900 0.0800 0.0800 0.0800
2.0000 1.8390 0.4105 0.750 0.750 0.750 0.900 0.0800 0.0800 0.0800
2.0000 2.5567 0.7591 0.750 0.750 0.750 0.900 0.0800 0.0800 0.0800
2.0000 2.1093 -1.8306 0.750 0.750 0.750 0.900 0.0800 0.0800 0.0800
2.0000 5.2202 -0.5898 0.750 0.750 0.750 0.900 0.0800 0.0800 0.0800
2.0000 5.9889 -0.9018 0.750 0.750 0.750 0.900 0.0800 0.0800 0.0800
2.0000 5.8802 1.7916 0.750 0.750 0.750 0.900 0.0800 0.0800 0.0800
2.0000 0.4502 0.5501 0.750 0.750 0.750 0.900 0.0800 0.0800 0.0800
2.0000 2.1799 1.2044 0.750 0.750 0.750 0.900 0.0800 0.0800 0.0800
2.0000 4.0765 1.8112 0.750 0.750 0.750 0.900 0.0800 0.0800 0.0800
2.0000 0.8567 0.4303 0.750 0.750 0.750 0.900 0.0800 0.0800 0.0800
2.0000 4.6879 -1.8608 0.750 0.750 0.750 0.900 0.0800 0.0800 0.0800
2.0000 0.4034 1.1141 0.750 0.750 0.750 0.900 0.0800 0.0800 0.0800
2.0000 2.1980 -0.4686 0.750 0.750 0.750 0.900 0.0800 0.0800 0.0800
2.0000 3.4035 0.4204 0.750 0.750 0.750 0.900 0.0800 0.0800 0.0800
2.0000 4.0744 1.7953 0.750 0.750 0.750 0.900 0.0800 0.0800 0.0800
2.0000 2.2321 1.0523 0.750 0.750 0.750 0.900 0.0800 0.0800 0.0800
2.0000 3.4435 0.1178 0.750 0.750 0.750 0.900 0.0800 0.0800 0.0800
2.0000 2.3882 0.5982 0.750 0.750 0.750 0.900 0.0800 0.0800 0.0800
2.0000 1.4977 -1.5462 0.750 0.750 0.750 0.900 0.0800 0.0800 0.0800
2.0000 4.4140 -0.0038 0.750 0.750 0.750 0.900 0.0800 0.0800 0.0800
2.0000 2.3219 0.2467 0.750 0.750 0.750 0.900 0.0800 0.0800 0.0800
2.0000 1.5707 -0.9588 0.750 0.750 0.750 0.900 0.0800 0.0800 0.0800
2.0000 2.6776 1.9855 0.750 0.750 0.750 0.900 0.0800 0.0800 0.0800
2.0000 1.7135 1.6659 0.750 0.750 0.750 0.900 0.0800 0.0800 0.0800
2.0000 2.9472 -1.5095 0.750 0.750 0.750 0.900 0.0800 0.0800 0.0800
2.0000 5.1170 -0.1918 0.750 0.750 0.750 0.900 0.0800 0.0800 0.0800
2.0000 5.3921 -0.2196 0.750 0.750 0.750 0.900 0.0800 0.0800 0.0800
2.0000 0.5267 0.7277 0.750 0.750 0.750 0.900 0.0800 0.0800 0.0800
2.0000 5.0731 -0.7216 0.750 0.750 0.750 0.900 0.0800 0.0800 0.0800
2.0000 2.0846 -1.7402 0.750 0.750 0.750 0.900 0.0800 0.0800 0.0800
2.0000 3.2530 1.5653 0.750 0.750 0.750 0.900 0.0800 0.0800 0.0800
2.0000 5.1082 0.8472 0.750 0.750 0.750 0.900 0.0800 0.0800 0.0800
2.0000 5.5639 0.5508 0.750 0.750 0.750 0.900 0.0800 0.0800 0.0800
2.0000 4.7622 0.0350 0.750 0.750 0.750 0.900 0.0800 0.0800 0.0800
2.0000 0.7282 -1.1961 0.750 0.750 0.750 0.900 0.0800 0.0800 0.0800
2.0000 0.8333 1.1615 0.750 0.750 0.750 0.900 0.0800 0.0800 0.0800
2.0000 0.1577 0.2161 0.750 0.750 0.750 0.900 0.0800 0.0800 0.0800
2.0000 2.2135 1.2146 0.750 0.750 0.750 0.900 0.0800 0.0800 0.0800
2.0000 3.3099 0.4478 0.750 0.750 0.750 0.900 0.0800 0.0800 0.0800
2.0000 0.5173 -0.7628 0.750 0.750 0.750 0.900 0.0800 0.0800 0.0800
2.0000 5.9976 0.8755 0.750 0.750 0.750 0.900 0.0800 0.0800 0.0800
2.0000 3.1542 1.0767 0.750 0.750 0.750 0.900 0.0800 0.0800 0.0800
2.0000 4.9400 -1.7050 0.750 0.750 0.750 0.900 0.0800 0.0800 0.0800
2.0000 5.8343 0.5694 0.750 0.750 0.750 0.900 0.0800 0.0800 0.0800
2.0000 2.6998 0.7204 0.750 0.750 0.750 0.900 0.0800 0.0800 0.0800
2.0000 2.0671 1.5118 0.750 0.750 0.750 0.900 0.0800 0.0800 0.0800
2.0000 4.6816 0.5592 0.750 0.750 0.750 0.900 0.0800 0.0800 0.0800
2.0000 1.0918 1.8651 0.750 0.750 0.750 0.900 0.0800 0.0800 0.0800
2.0000 2.5957 1.6428 0.750 0.750 0.750 0.900 0.0800 0.0800 0.0800
2.0000 0.3325 -1.5034 0.750 0.750 0.750 0.900 0.0800 0.0800 0.0800
2.0000 0.9181 -1.3414 0.750 0.750 0.750 0.900 0.0800 0.0800 0.0800
2.0000 1.9360 0.8373 0.750 0.750 0.750 0.900 0.0800 0.0800 0.0800
2.0000 2.0761 1.7636 0.750 0.750 0.750 0.900 0.0800 0.0800 0.0800
2.0000 5.3696 1.3837 0.750 0.750 0.750 0.900 0.0800 0.0800 0.0800
2.0000 1.5036 0.5402 0.750 0.750 0.750 0.900 0.0800 0.0800 0.0800
2.0000 3.3050 -1.4993 0.750 0.750 0.750 0.900 0.0800 0.0800 0.0800
2.0000 1.8169 0.1339 0.750 0.750 0.750 0.900 0.0800 0.0800 0.0800
2.0000 3.0154 -1.3255 0.750 0.750 0.750 0.900 0.0800 0.0800 0.0800
1.7664 6.0000 -1.3832 0.550 0.550 0.550 0.850 0.1200 0.1200 0.0400
0.6349 6.0000 0.8825 0.550 0.550 0.550 0.850 0.1200 0.1200 0.0400
0.4206 6.0000 1.3701 0.550 0.550 0.550 0.850 0.1200 0.1200 0.0400
0.2545 6.0000 1.3009 0.550 0.550 0.550 0.850 0.1200 0.1200 0.0400
-1.8865 6.0000 -1.8182 0.550 0.550 0.550 0.850 0.1200 0.1200 0.0400
0.5658 6.0000 0.3071 0.550 0.550 0.550 0.850 0.1200 0.1200 0.0400
0.6045 6.0000 1.0678 0.550 0.550 0.550 0.850 0.1200 0.1200 0.0400
-0.3337 6.0000 0.5560 0.550 0.550 0.550 0.850 0.1200 0.1200 0.0400
-0.0078 6.0000 0.5087 0.550 0.550 0.550 0.850 0.1200 0.1200 0.0400
-0.8413 6.0000 1.8266 0.550 0.550 0.550 0.850 0.1200 0.1200 0.0400
-0.0682 6.0000 1.2188 0.550 0.550 0.550 0.850 0.1200 0.1200 0.0400
0.7400 6.0000 -0.8103 0.550 0.550 0.550 0.850 0.1200 0.1200 0.0400
-1.7081 6.0000 -1.7603 0.550 0.550 0.550 0.850 0.1200 0.1200 0.0400
-0.2416 6.0000 -0.0630 0.550 0.550 0.550 0.850 0.1200 0.1200 0.0400
-1.1839 6.0000 0.4266 0.550 0.550 0.550 0.850 0.1200 0.1200 0.0400
-0.7497 6.0000 0.8735 0.550 0.550 0.550 0.850 0.1200 0.1200 0.0400
0.9368 6.0000 1.4431 0.550 0.550 0.550 0.850 0.1200 0.1200 0.0400
1.9015 6.0000 -1.4769 0.550 0.550 0.550 0.850 0.1200 0.1200 0.0400
-0.5178 6.0000 0.2466 0.550 0.550 0.550 0.850 0.1200 0.1200 0.0400
-0.7235 6.0000 -0.1341 0.550 0.550 0.550 0.850 0.1200 0.1200 0.0400
-0.9301 6.0000 -1.0083 0.550 0.550 0.550 0.850 0.1200 0.1200 0.0400
-1.6128 6.0000 -0.8392 0.550 0.550 0.550 0.850 0.1200 0.1200 0.0400
-0.4634 6.0000 0.4615 0.550 0.550 0.550 0.850 0.1200 0.1200 0.0400
-1.0069 6.0000 1.4612 0.550 0.550 0.550 0.850 0.1200 0.1200 0.0400
-1.3612 6.0000 -0.6903 0.550 0.550 0.550 0.850 0.1200 0.1200 0.0400
0.3107 6.0000 -0.7491 0.550 0.550 0.550 0.850 0.1200 0.1200 0.0400
1.0525 6.0000 -0.0069 0.550 0.550 0.550 0.850 0.1200 0.1200 0.0400
0.0589 6.0000 -0.0050 0.550 0.550 0.550 0.850 0.1200 0.1200 0.0400
-0.7658 6.0000 -1.9073 0.550 0.550 0.550 0.850 0.1200 0.1200 0.0400
1.7809 6.0000 0.0218 0.550 0.550 0.550 0.850 0.1200 0.1200 0.0400
1.8667 6.0000 -1.1394 0.550 0.550 0.550 0.850 0.1200 0.1200 0.0400
-0.5884 6.0000 -1.7978 0.550 0.550 0.550 0.850 0.1200 0.1200 0.0400
-0.0204 6.0000 1.5294 0.550 0.550 0.550 0.850 0.1200 0.1200 0.0400
0.6170 6.0000 -0.1177 0.550 0.550 0.550 0.850 0.1200 0.1200 0.0400
0.1468 6.0000 1.3887 0.550 0.550 0.550 0.850 0.1200 0.1200 0.0400
-0.2763 6.0000 1.5298 0.550 0.550 0.550 0.850 0.1200 0.1200 0.0400
0.9100 6.0000 1.0554 0.550 0.550 0.550 0.850 0.1200 0.1200 0.0400
-0.5363 6.0000 -0.3977 0.550 0.550 0.550 0.850 0.1200 0.1200 0.0400
0.2811 6.0000 -1.2214 0.550 0.550 0.550 0.850 0.1200 0.1200 0.0400
0.2129 6.0000 -1.7059 0.550 0.550 0.550 0.850 0.1200 0.1200 0.0400
0.0170 6.0000 1.0576 0.550 0.550 0.550 0.850 0.1200 0.1200 0.0400
-0.8811 6.0000 1.9564 0.550 0.550 0.550 0.850 0.1200 0.1200 0.0400
0.7216 6.0000 -1.5248 0.550 0.550 0.550 0.850 0.1200 0.1200 0.0400
1.9003 6.0000 -0.4244 0.550 0.550 0.550 0.850 0.1200 0.1200 0.0400
1.1796 6.0000 -0.6437 0.550 0.550 0.550 0.850 0.1200 0.1200 0.0400
1.7558 6.0000 1.0199 0.550 0.550 0.550 0.850 0.1200 0.1200 0.0400
-1.2038 6.0000 0.0365 0.550 0.550 0.550 0.850 0.1200 0.1200 0.0400
0.0003 6.0000 -1.8188 0.550 0.550 0.550 0.850 0.1200 0.1200 0.0400
-1.4519 6.0000 -0.6678 0.550 0.550 0.550 0.850 0.1200 0.1200 0.0400
-0.1050 6.0000 -0.1720 0.550 0.550 0.550 0.850 0.1200 0.1200 0.0400
0.4250 6.0000 0.0620 0.550 0.550 0.550 0.850 0.1200 0.1200 0.0400
-0.6881 6.0000 0.4523 0.550 0.550 0.550 0.850 0.1200 0.1200 0.0400
-1.3500 6.0000 1.9625 0.550 0.550 0.550 0.850 0.1200 0.1200 0.0400
0.9573 6.0000 -0.8031 0.550 0.550 0.550 0.850 0.1200 0.1200 0.0400
-0.6545 6.0000 1.3132 0.550 0.550 0.550 0.850 0.1200 0.1200 0.0400
0.1294 6.0000 0.8350 0.550 0.550 0.550 0.850 0.1200 0.1200 0.0400
-0.8008 6.0000 1.2630 0.550 0.550 0.550 0.850 0.1200 0.1200 0.0400
-0.5266 6.0000 0.6952 0.550 0.550 0.550 0.850 0.1200 0.1200 0.0400
1.9196 6.0000 0.3348 0.550 0.550 0.550 0.850 0.1200 0.1200 0.0400
1.1870 6.0000 0.9013 0.550 0.550 0.550 0.850 0.1200 0.1200 0.0400
0.7522 6.0000 -1.8934 0.550 0.550 0.550 0.850 0.1200 0.1200 0.0400
-0.1016 6.0000 1.8683 0.550 0.550 0.550 0.850 0.1200 0.1200 0.0400
1.1316 6.0000 1.1046 0.550 0.550 0.550 0.850 0.1200 0.1200 0.0400
0.3105 6.0000 0.8856 0.550 0.550 0.550 0.850 0.1200 0.1200 0.0400
0.3341 6.0000 -1.3180 0.550 0.550 0.550 0.850 0.1200 0.1200 0.0400
0.5161 6.0000 0.4789 0.550 0.550 0.550 0.850 0.1200 0.1200 0.0400
1.3647 6.0000 -1.4089 0.550 0.550 0.550 0.850 0.1200 0.1200 0.0400
0.7229 6.0000 -1.8737 0.550 0.550 0.550 0.850 0.1200 0.1200 0.0400
1.7928 6.0000 -1.5604 0.550 0.550 0.550 0.850 0.1200 0.1200 0.0400
-1.9243 6.0000 -0.7452 0.550 0.550 0.550 0.850 0.1200 0.1200 0.0400
-1.3943 6.0000 0.7620 0.550 0.550 0.550 0.850 0.1200 0.1200 0.0400
-0.3585 6.0000 1.0999 0.550 0.550 0.550 0.850 0.1200 0.1200 0.0400
1.6821 6.0000 1.4913 0.550 0.550 0.550 0.850 0.1200 0.1200 0.0400
0.9433 6.0000 -1.7509 0.550 0.550 0.550 0.850 0.1200 0.1200 0.0400
-1.4477 6.0000 -1.1706 0.550 0.550 0.550 0.850 0.1200 0.1200 0.0400
-0.6998 6.0000 0.6489 0.550 0.550 0.550 0.850 0.1200 0.1200 0.0400
0.1019 6.0000 -0.7450 0.550 0.550 0.550 0.850 0.1200 0.1200 0.0400
-1.3073 6.0000 1.6485 0.550 0.550 0.550 0.850 0.1200 0.1200 0.0400
-0.6307 6.0000 -0.5829 0.550 0.550 0.550 0.850 0.1200 0.1200 0.0400
1.0880 6.0000 0.8837 0.550 0.550 0.550 0.850 0.1200 0.1200 0.0400
0.5732 6.0000 0.7733 0.550 0.550 0.550 0.850 0.1200 0.1200 0.0400
0.4403 6.0000 -1.2309 0.550 0.550 0.550 0.850 0.1200 0.1200 0.0400
-1.0139 6.0000 0.2323 0.550 0.550 0.550 0.850 0.1200 0.1200 0.0400
-1.1005 6.0000 1.8916 0.550 0.550 0.550 0.850 0.1200 0.1200 0.0400
-0.8095 6.0000 -0.8440 0.550 0.550 0.550 0.850 0.1200 0.1200 0.0400
-1.1709 6.0000 0.8200 0.550 0.550 0.550 0.850 0.1200 0.1200 0.0400
-0.7318 6.0000 -0.6048 0.550 0.550 0.550 0.850 0.1200 0.1200 0.0400
1.7348 6.0000 1.1816 0.550 0.550 0.550 0.850 0.1200 0.1200 0.0400
-0.9062 6.0000 -1.5125 0.550 0.550 0.550 0.850 0.1200 0.1200 0.0400
0.7065 6.0000 -0.4812 0.550 0.550 0.550 0.850 0.1200 0.1200 0.0400
1.9206 6.0000 1.2735 0.550 0.550 0.550 0.850 0.1200 0.1200 0.0400
1.8184 6.0000 1.2185 0.550 0.550 0.550 0.850 0.1200 0.1200 0.0400
-0.8382 6.0000 -0.8495 0.550 0.550 0.550 0.850 0.1200 0.1200 0.0400
0.8566 6.0000 -0.6145 0.550 0.550 0.550 0.850 0.1200 0.1200 0.0400
-0.2305 6.0000 -0.9742 0.550 0.550 0.550 0.850 0.1200 0.1200 0.0400
-0.0837 6.0000 -1.1917 0.550 0.550 0.550 0.850 0.1200 0.1200 0.0400
0.1543 6.0000 1.7321 0.550 0.550 0.550 0.850 0.1200 0.1200 0.0400
0.7847 6.0000 -1.4509 0.550 0.550 0.550 0.850 0.1200 0.1200 0.0400
0.4627 6.0000 0.3473 0.550 0.550 0.550 0.850 0.1200 0.1200 0.0400
-1.0302 6.0000 0.6793 0.550 0.550 0.550 0.850 0.1200 0.1200 0.0400
0.1242 6.0000 0.5518 0.550 0.550 0.550 0.850 0.1200 0.1200 0.0400
-1.7900 6.0000 -0.3468 0.550 0.550 0.550 0.850 0.1200 0.1200 0.0400
0.8694 6.0000 -1.5978 0.550 0.550 0.550 0.850 0.1200 0.1200 0.0400
1.0831 6.0000 -1.9793 0.550 0.550 0.550 0.850 0.1200 0.1200 0.0400
0.2014 6.0000 1.7164 0.550 0.550 0.550 0.850 0.1200 0.1200 0.0400
-0.3724 6.0000 1.7401 0.550 0.550 0.550 0.850 0.1200 0.1200 0.0400
1.5136 6.0000 -0.0902 0.550 0.550 0.550 0.850 0.1200 0.1200 0.0400
-1.2022 6.0000 1.8557 0.550 0.550 0.550 0.850 0.1200 0.1200 0.0400
-0.7153 6.0000 0.5836 0.550 0.550 0.550 0.850 0.1200 0.1200 0.0400
1.6317 6.0000 -1.6422 0.550 0.550 0.550 0.850 0.1200 0.1200 0.0400
0.2965 6.0000 0.1406 0.550 0.550 0.550 0.850 0.1200 0.1200 0.0400
0.8925 6.0000 1.7467 0.550 0.550 0.550 0.850 0.1200 0.1200 0.0400
1.6529 6.0000 -1.2997 0.550 0.550 0.550 0.850 0.1200 0.1200 0.0400
1.5290 6.0000 -1.2968 0.550 0.550 0.550 0.850 0.1200 0.1200 0.0400
1.6785 6.0000 1.9887 0.550 0.550 0.550 0.850 0.1200 0.1200 0.0400
-0.4120 6.0000 -0.0185 0.550 0.550 0.550 0.850 0.1200 0.1200 0.0400
1.7464 6.0000 1.8485 0.550 0.550 0.550 0.850 0.1200 0.1200 0.0400
1.7042 6.0000 1.5070 0.550 0.550 0.550 0.850 0.1200 0.1200 0.0400
-1.9629 6.0000 0.2718 0.550 0.550 0.550 0.850 0.1200 0.1200 0.0400
-1.5708 6.0000 1.9320 0.550 0.550 0.550 0.850 0.1200 0.1200 0.0400
-0.8618 6.0000 1.9564 0.550 0.550 0.550 0.850 0.1200 0.1200 0.0400
0.1732 6.0000 -0.0244 0.550 0.550 0.550 0.850 0.1200 0.1200 0.0400
1.7542 6.0000 1.4042 0.550 0.550 0.550 0.850 0.1200 0.1200 0.0400
-0.1279 6.0000 -1.2288 0.550 0.550 0.550 0.850 0.1200 0.1200 0.0400
-1.5494 6.0000 -1.3500 0.550 0.550 0.550 0.850 0.1200 0.1200 0.0400
-0.1643 6.0000 -0.9709 0.550 0.550 0.550 0.850 0.1200 0.1200 0.0400
-1.2552 6.0000 0.9465 0.550 0.550 0.550 0.850 0.1200 0.1200 0.0400
1.1631 6.0000 0.2711 0.550 0.550 0.550 0.850 0.1200 0.1200 0.0400
1.0291 6.0000 -1.2980 0.550 0.550 0.550 0.850 0.1200 0.1200 0.0400
1.4246 6.0000 1.5882 0.550 0.550 0.550 0.850 0.1200 0.1200 0.0400
1.3080 6.0000 0.0611 0.550 0.550 0.550 0.850 0.1200 0.1200 0.0400
-1.6530 6.0000 0.6770 0.550 0.550 0.550 0.850 0.1200 0.1200 0.0400
-1.2609 6.0000 -1.4376 0.550 0.550 0.550 0.850 0.1200 0.1200 0.0400
-0.7056 6.0000 -1.0078 0.550 0.550 0.550 0.850 0.1200 0.1200 0.0400
-0.9569 6.0000 -1.0579 0.550 0.550 0.550 0.850 0.1200 0.1200 0.0400
1.0150 6.0000 1.8161 0.550 0.550 0.550 0.850 0.1200 0.1200 0.0400
-0.7922 6.0000 0.8915 0.550 0.550 0.550 0.850 0.1200 0.1200 0.0400
-1.9543 6.0000 0.6147 0.550 0.550 0.550 0.850 0.1200 0.1200 0.0400
0.7711 6.0000 -1.7515 0.550 0.550 0.550 0.850 0.1200 0.1200 0.0400
-1.5271 6.0000 -0.7728 0.550 0.550 0.550 0.850 0.1200 0.1200 0.0400
-0.3783 6.0000 0.0101 0.550 0.550 0.550 0.850 0.1200 0.1200 0.0400
1.5805 6.0000 0.8142 0.550 0.550 0.550 0.850 0.1200 0.1200 0.0400
-0.7561 6.0000 -1.5303 0.550 0.550 0.550 0.850 0.1200 0.1200 0.0400
1.6645 6.0000 -0.8198 0.550 0.550 0.550 0.850 0.1200 0.1200 0.0400
0.4585 6.0000 -1.1235 0.550 0.550 0.550 0.850 0.1200 0.1200 0.0400
-1.4657 6.0000 -1.3873 0.550 0.550 0.550 0.850 0.1200 0.1200 0.0400
0.9909 6.0000 0.4230 0.550 0.550 0.550 0.850 0.1200 0.1200 0.0400
-0.3366 6.0000 0.1969 0.550 0.550 0.550 0.850 0.1200 0.1200 0.0400
-0.1167 6.0000 0.1501 0.550 0.550 0.550 0.850 0.1200 0.1200 0.0400
0.6564 6.0000 -1.1264 0.550 0.550 0.550 0.850 0.1200 0.1200 0.0400
-1.0101 6.0000 1.0190 0.550 0.550 0.550 0.850 0.1200 0.1200 0.0400
1.4925 6.0000 -1.6725 0.550 0.550 0.550 0.850 0.1200 0.1200 0.0400
-0.2130 6.0000 0.8151 0.550 0.550 0.550 0.850 0.1200 0.1200 0.0400
-1.6876 6.0000 0.2567 0.550 0.550 0.550 0.850 0.1200 0.1200 0.0400
-1.7530 6.0000 0.1906 0.550 0.550 0.550 0.850 0.1200 0.1200 0.0400
0.0219 6.0000 0.2908 0.550 0.550 0.550 0.850 0.1200 0.1200 0.0400
-1.4006 6.0000 -0.6875 0.550 0.550 0.550 0.850 0.1200 0.1200 0.0400
0.0814 6.0000 -1.5350 0.550 0.550 0.550 0.850 0.1200 0.1200 0.0400
-1.1784 6.0000 0.3326 0.550 0.550 0.550 0.850 0.1200 0.1200 0.0400
-1.6362 6.0000 0.0415 0.550 0.550 0.550 0.850 0.1200 0.1200 0.0400
1.2348 6.0000 -0.1863 0.550 0.550 0.550 0.850 0.1200 0.1200 0.0400
0.0530 6.0000 -0.1728 0.550 0.550 0.550 0.850 0.1200 0.1200 0.0400
-1.7691 6.0000 -0.1505 0.550 0.550 0.550 0.850 0.1200 0.1200 0.0400
1.2277 6.0000 0.8931 0.550 0.550 0.550 0.850 0.1200 0.1200 0.0400
-0.4162 6.0000 1.2658 0.550 0.550 0.550 0.850 0.1200 0.1200 0.0400
0.9832 6.0000 0.3132 0.550 0.550 0.550 0.850 0.1200 0.1200 0.0400
-1.8188 6.0000 -0.6219 0.550 0.550 0.550 0.850 0.1200 0.1200 0.0400
-1.7450 6.0000 1.9765 0.550 0.550 0.550 0.850 0.1200 0.1200 0.0400
1.7383 6.0000 -1.7239 0.550 0.550 0.550 0.850 0.1200 0.1200 0.0400
1.7351 6.0000 -1.8731 0.550 0.550 0.550 0.850 0.1200 0.1200 0.0400
-0.3645 6.0000 1.0759 0.550 0.550 0.550 0.850 0.1200 0.1200 0.0400
1.0633 6.0000 1.9133 0.550 0.550 0.550 0.850 0.1200 0.1200 0.0400
0.5835 6.0000 -0.3186 0.550 0.550 0.550 0.850 0.1200 0.1200 0.0400
1.9714 6.0000 -0.4701 0.550 0.550 0.550 0.850 0.1200 0.1200 0.0400
1.4785 6.0000 1.6271 0.550 0.550 0.550 0.850 0.1200 0.1200 0.0400
-0.4974 6.0000 0.7309 0.550 0.550 0.550 0.850 0.1200 0.1200 0.0400
0.6472 6.0000 0.1572 0.550 0.550 0.550 0.850 0.1200 0.1200 0.0400
0.6141 6.0000 -0.6089 0.550 0.550 0.550 0.850 0.1200 0.1200 0.0400
-1.2861 6.0000 0.1490 0.550 0.550 0.550 0.850 0.1200 0.1200 0.0400
0.1154 6.0000 0.9114 0.550 0.550 0.550 0.850 0.1200 0.1200 0.0400
-1.1092 6.0000 -1.9861 0.550 0.550 0.550 0.850 0.1200 0.1200 0.0400
-1.9091 6.0000 -0.8065 0.550 0.550 0.550 0.850 0.1200 0.1200 0.0400
0.6940 6.0000 0.1778 0.550 0.550 0.550 0.850 0.1200 0.1200 0.0400
0.1277 6.0000 1.2934 0.550 0.550 0.550 0.850 0.1200 0.1200 0.0400
-1.0100 6.0000 -0.6154 0.550 0.550 0.550 0.850 0.1200 0.1200 0.0400
-0.8974 6.0000 1.7496 0.550 0.550 0.550 0.850 0.1200 0.1200 0.0400
0.9001 6.0000 -1.5486 0.550 0.550 0.550 0.850 0.1200 0.1200 0.0400
1.2379 6.0000 -0.3230 0.550 0.550 0.550 0.850 0.1200 0.1200 0.0400
1.0642 6.0000 1.5350 0.550 0.550 0.550 0.850 0.1200 0.1200 0.0400
-1.9374 6.0000 -1.1757 0.550 0.550 0.550 0.850 0.1200 0.1200 0.0400
-1.5964 6.0000 -1.8657 0.550 0.550 0.550 0.850 0.1200 0.1200 0.0400
0.3911 6.0000 0.8131 0.550 0.550 0.550 0.850 0.1200 0.1200 0.0400
-1.8053 6.0000 0.9622 0.550 0.550 0.550 0.850 0.1200 0.1200 0.0400
-0.3909 6.0000 -1.0626 0.550 0.550 0.550 0.850 0.1200 0.1200 0.0400
-1.1309 6.0000 1.4549 0.550 0.550 0.550 0.850 0.1200 0.1200 0.0400
-1.7742 6.0000 0.0156 0.550 0.550 0.550 0.850 0.1200 0.1200 0.0400
-0.8429 6.0000 1.2631 0.550 0.550 0.550 0.850 0.1200 0.1200 0.0400
0.9261 6.0000 -0.7244 0.550 0.550 0.550 0.850 0.1200 0.1200 0.0400
0.3917 6.0000 0.6901 0.550 0.550 0.550 0.850 0.1200 0.1200 0.0400
-0.7173 6.0000 -0.7929 0.550 0.550 0.550 0.850 0.1200 0.1200 0.0400
-1.7135 6.2865 -0.3458 0.720 0.350 0.250 0.900 0.1000 0.1000 0.0600
-1.4497 6.5503 0.5040 0.720 0.350 0.250 0.900 0.1000 0.1000 0.0600
1.1456 6.8544 -1.8125 0.720 0.350 0.250 0.900 0.1000 0.1000 0.0600
1.3112 6.6888 1.1432 0.720 0.350 0.250 0.900 0.1000 0.1000 0.0600
1.3625 6.6375 -0.3670 0.720 0.350 0.250 0.900 0.1000 0.1000 0.0600
-1.4002 6.5998 1.0177 0.720 0.350 0.250 0.900 0.1000 0.1000 0.0600
-1.0530 6.9470 -0.7971 0.720 0.350 0.250 0.900 0.1000 0.1000 0.0600
0.5848 7.4152 1.6590 0.720 0.350 0.250 0.900 0.1000 0.1000 0.0600
0.8752 7.1248 0.2291 0.720 0.350 0.250 0.900 0.1000 0.1000 0.0600
-1.7318 6.2682 -0.9800 0.720 0.350 0.250 0.900 0.1000 0.1000 0.0600
-1.3395 6.6605 1.6889 0.720 0.350 0.250 0.900 0.1000 0.1000 0.0600
-0.3057 7.6943 0.1425 0.720 0.350 0.250 0.900 0.1000 0.1000 0.0600
-0.3412 7.6588 -0.9262 0.720 0.350 0.250 0.900 0.1000 0.1000 0.0600
-0.6527 7.3473 1.4945 0.720 0.350 0.250 0.900 0.1000 0.1000 0.0600
-1.6237 6.3763 -0.0824 0.720 0.350 0.250 0.900 0.1000 0.1000 0.0600
0.2611 7.7389 -0.7872 0.720 0.350 0.250 0.900 0.1000 0.1000 0.0600
-0.1820 7.8180 1.7486 0.720 0.350 0.250 0.900 0.1000 0.1000 0.0600
-0.0758 7.9242 0.9875 0.720 0.350 0.250 0.900 0.1000 0.1000 0.0600
-0.4913 7.5087 0.7825 0.720 0.350 0.250 0.900 0.1000 0.1000 0.0600
0.5925 7.4075 1.6605 0.720 0.350 0.250 0.900 0.1000 0.1000 0.0600
0.8958 7.1042 -0.4774 0.720 0.350 0.250 0.900 0.1000 0.1000 0.0600
0.9327 7.0673 -0.7663 0.720 0.350 0.250 0.900 0.1000 0.1000 0.0600
1.2807 6.7193 -0.1360 0.720 0.350 0.250 0.900 0.1000 0.1000 0.0600
0.3944 7.6056 1.0465 0.720 0.350 0.250 0.900 0.1000 0.1000 0.0600
-1.3595 6.6405 -0.5172 0.720 0.350 0.250 0.900 0.1000 0.1000 0.0600
-1.1721 6.8279 0.9650 0.720 0.350 0.250 0.900 0.1000 0.1000 0.0600
1.9676 6.0324 -0.8192 0.720 0.350 0.250 0.900 0.1000 0.1000 0.0600
-1.6076 6.3924 -0.4806 0.720 0.350 0.250 0.900 0.1000 0.1000 0.0600
0.3333 7.6667 0.2026 0.720 0.350 0.250 0.900 0.1000 0.1000 0.0600
0.1131 7.8869 -0.9707 0.720 0.350 0.250 0.900 0.1000 0.1000 0.0600
0.3568 7.6432 -0.1567 0.720 0.350 0.250 0.900 0.1000 0.1000 0.0600
0.5345 7.4655 -1.3229 0.720 0.350 0.250 0.900 0.1000 0.1000 0.0600
0.5594 7.4406 -1.2638 0.720 0.350 0.250 0.900 0.1000 0.1000 0.0600
-0.2213 7.7787 0.0958 0.720 0.350 0.250 0.900 0.1000 0.1000 0.0600
-0.3219 7.6781 1.7808 0.720 0.350 0.250 0.900 0.1000 0.1000 0.0600
-0.6636 7.3364 -0.3504 0.720 0.350 0.250 0.900 0.1000 0.1000 0.0600
-0.3149 7.6851 -1.7281 0.720 0.350 0.250 0.900 0.1000 0.1000 0.0600
-1.6979 6.3021 0.0229 0.720 0.350 0.250 0.900 0.1000 0.1000 0.0600
1.2536 6.7464 0.6371 0.720 0.350 0.250 0.900 0.1000 0.1000 0.0600
1.9685 6.0315 -1.9526 0.720 0.350 0.250 0.900 0.1000 0.1000 0.0600
0.9412 7.0588 0.1430 0.720 0.350 0.250 0.900 0.1000 0.1000 0.0600
1.4266 6.5734 1.2247 0.720 0.350 0.250 0.900 0.1000 0.1000 0.0600
-0.1805 7.8195 1.6722 0.720 0.350 0.250 0.900 0.1000 0.1000 0.0600
