ply
format ascii 1.0
element vertex 361
property float x
property float y
property float z
property float f_dc_0
property float f_dc_1
property float f_dc_2
property float opacity
property float scale_0
property float scale_1
property float scale_2
property float rot_0
property float rot_1
property float rot_2
property float rot_3
end_header
-3.548389 6.981378 0.004344 -0.035269 0.232042 -1.416210 2.866913 -1.795043 -1.795043 -3.236303 1.000000 0.000000 0.000000 0.000000
2.867247 5.649435 -0.109740 -0.362781 0.175480 -1.340410 6.254877 -1.755395 -1.755395 -3.420666 1.000000 0.000000 0.000000 0.000000
-5.125874 -7.160446 -0.134501 0.460907 0.066213 -0.375954 1.429341 -1.937623 -1.937623 -3.643533 1.000000 0.000000 0.000000 0.000000
-0.960761 -7.106590 1.739339 -1.574436 0.173341 -1.350225 1.179455 -2.265383 -2.265383 -2.265383 1.000000 0.000000 0.000000 0.000000
-4.897003 -4.642051 1.708948 -1.153209 0.134638 -1.396533 0.406297 -2.168778 -2.168778 -2.168778 1.000000 0.000000 0.000000 0.000000
5.975884 -4.766736 -0.022705 -0.116061 0.466454 -1.045165 1.930193 -1.863059 -1.863059 -3.900216 1.000000 0.000000 0.000000 0.000000
6.843799 -0.269432 1.506206 -1.027423 0.193807 -1.405641 1.669677 -2.185410 -2.185410 -2.185410 1.000000 0.000000 0.000000 0.000000
-4.049674 0.612407 0.078121 -0.013463 0.555997 -1.058188 3.216506 -2.108989 -2.108989 -3.792491 1.000000 0.000000 0.000000 0.000000
2.931407 -5.235085 -0.039413 -0.576295 0.198412 -0.791632 1.728004 -2.896839 -2.896839 -3.359085 1.000000 0.000000 0.000000 0.000000
5.132071 5.889491 0.021064 -0.492210 0.442760 -1.132053 2.615831 -2.428008 -2.428008 -3.453312 1.000000 0.000000 0.000000 0.000000
-6.295185 -7.916876 -0.016908 -0.615037 0.132857 -1.099741 1.419451 -2.015821 -2.015821 -3.637359 1.000000 0.000000 0.000000 0.000000
7.051122 -0.082487 2.268061 -1.214294 0.263442 -1.223163 1.070894 -1.813219 -1.813219 -1.813219 1.000000 0.000000 0.000000 0.000000
-4.121211 -1.983115 0.020270 -0.309222 0.419878 -1.031122 4.657700 -1.882186 -1.882186 -3.441895 1.000000 0.000000 0.000000 0.000000
4.977206 -3.946985 1.940387 0.457907 0.457907 0.430911 3.324121 -2.184782 -2.184782 -1.577288 1.000000 0.000000 0.000000 0.000000
-2.564477 4.029046 -0.010038 0.696227 -0.312557 -0.798918 2.263682 -2.586581 -2.586581 -3.025285 1.000000 0.000000 0.000000 0.000000
5.199354 1.581519 1.666383 -0.920195 0.297203 -1.219299 0.574345 -1.750053 -1.750053 -1.750053 1.000000 0.000000 0.000000 0.000000
-7.571297 -7.275050 5.122488 1.096248 1.229594 1.566329 -1.317117 -0.966693 -0.966693 -2.170666 1.000000 0.000000 0.000000 0.000000
3.922496 4.884371 1.060063 0.558705 0.558705 0.435913 4.049844 -2.453179 -2.453179 -2.429526 1.000000 0.000000 0.000000 0.000000
5.475638 4.009296 3.718398 0.827055 0.827055 0.964393 2.111333 -1.984839 -1.984839 -2.516521 1.000000 0.000000 0.000000 0.000000
-5.373133 -4.595547 0.016650 -0.060121 0.527662 -1.218444 1.599673 -2.014108 -2.014108 -3.492156 1.000000 0.000000 0.000000 0.000000
-4.631480 3.211402 -0.068214 -0.581443 0.092975 -1.009666 1.766243 -2.473551 -2.473551 -4.269070 1.000000 0.000000 0.000000 0.000000
6.137097 -5.166207 -0.026666 -0.214426 0.187558 -1.070643 2.561844 -1.989203 -1.989203 -3.731605 1.000000 0.000000 0.000000 0.000000
1.834929 -5.889717 1.753350 -1.544203 -0.150811 -1.254192 0.571275 -2.330145 -2.330145 -2.330145 1.000000 0.000000 0.000000 0.000000
4.530052 -1.539022 -0.054644 0.334642 0.008966 -0.523824 1.698856 -2.625657 -2.625657 -3.653504 1.000000 0.000000 0.000000 0.000000
0.355509 -7.734985 2.056366 -1.301464 0.051854 -1.150690 2.508677 -1.760100 -1.760100 -1.760100 1.000000 0.000000 0.000000 0.000000
-6.123782 2.057823 1.563188 -1.315067 -0.179591 -1.503938 1.346383 -1.810566 -1.810566 -1.810566 1.000000 0.000000 0.000000 0.000000
5.179371 2.336682 0.061643 -0.282719 0.287751 -1.337452 3.330060 -2.541002 -2.541002 -3.920889 1.000000 0.000000 0.000000 0.000000
0.533207 -6.631437 1.549089 -1.422510 0.052600 -1.524933 0.476681 -2.516982 -2.516982 -2.516982 1.000000 0.000000 0.000000 0.000000
4.316316 -4.068916 3.773127 1.228304 1.228304 1.288216 3.334108 -2.316181 -2.316181 -2.066530 1.000000 0.000000 0.000000 0.000000
4.523021 4.271290 3.270122 0.815224 0.815224 0.788097 1.923836 -1.970269 -1.970269 -1.506971 1.000000 0.000000 0.000000 0.000000
-6.749699 4.518198 -0.007474 -0.282537 0.234616 -1.259136 1.736770 -1.654997 -1.654997 -3.059931 1.000000 0.000000 0.000000 0.000000
-2.251977 1.532304 6.480216 0.713788 1.544936 1.602458 -0.974467 -1.116379 -1.116379 -2.320351 1.000000 0.000000 0.000000 0.000000
-4.776323 -4.651560 3.333986 0.983078 0.983078 1.042791 2.788278 -2.291097 -2.291097 -1.761356 1.000000 0.000000 0.000000 0.000000
7.442164 7.675875 5.371928 1.187353 0.906223 1.265354 -0.937034 -1.730187 -1.730187 -2.934160 1.000000 0.000000 0.000000 0.000000
-1.078107 6.571396 0.024201 -0.592243 0.228761 -0.915060 3.841289 -2.283729 -2.283729 -3.044163 1.000000 0.000000 0.000000 0.000000
0.125177 -1.285674 -0.109913 0.696990 -0.295579 -0.991772 2.186110 -1.766684 -1.766684 -3.926641 1.000000 0.000000 0.000000 0.000000
-4.019846 -3.400488 3.057170 0.885606 0.885606 0.921086 1.857108 -1.981639 -1.981639 -2.451639 1.000000 0.000000 0.000000 0.000000
-0.180089 0.829474 9.445692 1.193875 1.498312 1.737111 -1.672774 -2.131646 -2.131646 -3.335619 1.000000 0.000000 0.000000 0.000000
2.595629 0.407634 0.046100 -0.586198 0.646679 -1.175260 2.828278 -2.271638 -2.271638 -3.197124 1.000000 0.000000 0.000000 0.000000
-7.362770 -7.032498 0.014523 0.355234 -0.059957 -0.565902 2.486774 -2.774764 -2.774764 -3.458956 1.000000 0.000000 0.000000 0.000000
-4.579521 0.956704 0.118387 -0.582070 0.530055 -1.410397 1.393327 -2.151478 -2.151478 -3.472475 1.000000 0.000000 0.000000 0.000000
-4.807433 -4.750012 0.662975 0.254027 0.254027 0.216706 2.105973 -1.922956 -1.922956 -2.325047 1.000000 0.000000 0.000000 0.000000
-4.331530 2.045753 6.761246 0.849266 1.320010 1.256142 -1.225488 -1.211432 -1.211432 -2.415405 1.000000 0.000000 0.000000 0.000000
6.010825 1.995465 1.509207 -1.394486 -0.432670 -1.363758 0.708264 -2.570909 -2.570909 -2.570909 1.000000 0.000000 0.000000 0.000000
1.349220 -1.760789 -0.000375 -0.606691 0.124181 -0.730305 2.414100 -2.154844 -2.154844 -3.903448 1.000000 0.000000 0.000000 0.000000
-6.874611 6.260244 9.279255 0.494439 0.915092 1.666524 -1.120631 -2.201130 -2.201130 -3.405103 1.000000 0.000000 0.000000 0.000000
2.855243 -5.043533 1.133654 0.987650 0.987650 0.970609 2.466431 -1.923623 -1.923623 -1.528231 1.000000 0.000000 0.000000 0.000000
-5.805931 4.375368 0.000530 0.101280 0.021630 -1.057464 2.834013 -1.913907 -1.913907 -3.589795 1.000000 0.000000 0.000000 0.000000
6.840702 6.855171 8.195264 0.856895 0.918427 1.361766 -0.974205 -1.876572 -1.876572 -3.080545 1.000000 0.000000 0.000000 0.000000
2.009906 -5.803224 1.655155 -1.095862 0.134669 -1.305650 2.783912 -1.731316 -1.731316 -1.731316 1.000000 0.000000 0.000000 0.000000
-1.113035 -3.313238 0.000709 -0.417068 0.397423 -1.138091 1.973109 -2.597085 -2.597085 -3.231842 1.000000 0.000000 0.000000 0.000000
-5.892391 3.025384 2.005887 -1.197616 0.094143 -1.125842 1.062111 -1.743669 -1.743669 -1.743669 1.000000 0.000000 0.000000 0.000000
4.596327 -5.231851 1.017378 0.647670 0.647670 0.620063 1.832199 -2.209787 -2.209787 -1.714963 1.000000 0.000000 0.000000 0.000000
1.231758 6.332814 6.034486 0.824831 0.843338 1.645037 -0.906041 -1.009776 -1.009776 -2.213749 1.000000 0.000000 0.000000 0.000000
-7.407214 7.932792 6.434850 0.750401 1.367943 1.480854 -0.464005 -1.037323 -1.037323 -2.241296 1.000000 0.000000 0.000000 0.000000
5.988613 1.872368 1.560301 -1.549036 -0.174023 -1.068953 2.001432 -2.797411 -2.797411 -2.797411 1.000000 0.000000 0.000000 0.000000
2.592324 1.603448 0.003550 -0.502093 0.058091 -0.819746 2.173227 -2.340775 -2.340775 -3.653563 1.000000 0.000000 0.000000 0.000000
-3.102064 -2.894545 0.742349 0.183169 0.183169 0.126425 1.998255 -3.130022 -3.130022 -2.758798 1.000000 0.000000 0.000000 0.000000
-4.853421 -2.866556 1.304026 0.410635 0.410635 0.323302 1.816604 -2.391099 -2.391099 -1.960364 1.000000 0.000000 0.000000 0.000000
-3.244977 8.164836 7.606038 1.127045 1.329658 1.359259 -1.180510 -1.295890 -1.295890 -2.499863 1.000000 0.000000 0.000000 0.000000
-4.189319 3.132806 2.911095 0.725346 0.725346 0.757596 2.670600 -2.633848 -2.633848 -3.032972 1.000000 0.000000 0.000000 0.000000
-4.850674 3.732807 0.981059 1.058597 1.058597 1.003127 3.039200 -2.189256 -2.189256 -2.294802 1.000000 0.000000 0.000000 0.000000
-5.967062 1.159254 1.789245 -1.552056 0.405158 -1.267775 2.850107 -2.013431 -2.013431 -2.013431 1.000000 0.000000 0.000000 0.000000
-2.363811 9.865220 8.793727 0.924834 0.851054 1.495224 -2.157748 -1.357895 -1.357895 -2.561868 1.000000 0.000000 0.000000 0.000000
0.496664 2.207113 0.048852 0.071284 0.191968 -1.059799 2.005578 -2.020774 -2.020774 -3.054125 1.000000 0.000000 0.000000 0.000000
-0.165728 -5.755255 -0.021614 -0.454429 0.006794 -1.321162 2.209368 -1.758620 -1.758620 -3.025096 1.000000 0.000000 0.000000 0.000000
6.328869 1.876420 2.190387 -1.525103 0.305999 -1.435766 1.196095 -2.377148 -2.377148 -2.377148 1.000000 0.000000 0.000000 0.000000
-5.366662 -6.066256 1.889662 -0.968377 0.202463 -1.166225 0.879779 -1.887059 -1.887059 -1.887059 1.000000 0.000000 0.000000 0.000000
4.124962 2.801715 2.649415 1.158187 1.158187 1.190616 2.448000 -2.079707 -2.079707 -1.829579 1.000000 0.000000 0.000000 0.000000
5.711580 -0.172586 0.066888 0.197927 0.163078 -0.541535 2.387815 -2.441869 -2.441869 -3.768276 1.000000 0.000000 0.000000 0.000000
-2.254957 -5.944126 0.053938 0.052720 -0.173724 -0.792796 1.493819 -1.684436 -1.684436 -3.649567 1.000000 0.000000 0.000000 0.000000
-1.642422 -4.286151 0.009312 -0.309716 0.455746 -1.182272 1.510112 -1.763451 -1.763451 -3.015268 1.000000 0.000000 0.000000 0.000000
-2.566136 7.001358 0.011301 -0.572516 0.072805 -0.995995 1.648756 -2.811219 -2.811219 -3.180216 1.000000 0.000000 0.000000 0.000000
6.759950 1.760504 -0.060863 0.533088 0.189380 -0.757939 3.710035 -2.391091 -2.391091 -3.573712 1.000000 0.000000 0.000000 0.000000
5.723891 2.697322 1.709013 -1.384974 0.501984 -1.131207 1.616347 -2.380653 -2.380653 -2.380653 1.000000 0.000000 0.000000 0.000000
0.684643 -1.792831 7.121454 0.898647 1.199865 1.770043 -1.609113 -1.627337 -1.627337 -2.831309 1.000000 0.000000 0.000000 0.000000
-7.283891 -5.733289 0.001786 0.299786 0.050011 -0.451094 3.694207 -1.938438 -1.938438 -4.006606 1.000000 0.000000 0.000000 0.000000
-6.005933 1.103265 1.968133 -1.548197 0.088466 -1.424837 1.356801 -2.022658 -2.022658 -2.022658 1.000000 0.000000 0.000000 0.000000
-1.881522 3.877434 0.021198 -0.387312 0.447723 -1.164062 1.810187 -2.453893 -2.453893 -3.080934 1.000000 0.000000 0.000000 0.000000
4.243101 5.076980 2.805209 0.859119 0.859119 0.746294 4.040487 -2.203647 -2.203647 -1.567419 1.000000 0.000000 0.000000 0.000000
-3.364928 -3.828862 1.242319 0.332199 0.332199 0.170829 1.971453 -2.939975 -2.939975 -3.209695 1.000000 0.000000 0.000000 0.000000
1.695258 -6.866017 0.002093 0.147991 -0.006093 -0.432644 1.463976 -2.780725 -2.780725 -3.169115 1.000000 0.000000 0.000000 0.000000
-6.019494 0.949645 -0.051992 -0.270332 0.408980 -1.380476 2.144643 -1.998513 -1.998513 -4.041230 1.000000 0.000000 0.000000 0.000000
-7.749915 -0.208520 0.031418 -0.246899 0.628806 -1.122869 2.724755 -1.765438 -1.765438 -3.196564 1.000000 0.000000 0.000000 0.000000
-7.682635 -6.060200 0.086371 -0.300683 0.460222 -1.294218 2.660228 -1.789484 -1.789484 -3.721222 1.000000 0.000000 0.000000 0.000000
-4.111901 -3.977469 1.857651 0.816421 0.816421 0.882597 3.504523 -2.888571 -2.888571 -2.446299 1.000000 0.000000 0.000000 0.000000
-4.752630 4.745178 1.107463 0.859734 0.859734 0.757148 4.220873 -3.023996 -3.023996 -2.400546 1.000000 0.000000 0.000000 0.000000
4.217276 -4.151070 3.085749 0.701352 0.701352 0.773250 2.853465 -2.303527 -2.303527 -2.204432 1.000000 0.000000 0.000000 0.000000
3.342500 4.450501 3.953376 0.540403 0.540403 0.659627 4.402294 -2.238836 -2.238836 -1.660500 1.000000 0.000000 0.000000 0.000000
7.738694 4.461917 -0.008834 -0.653515 0.630934 -1.355256 4.830694 -2.113058 -2.113058 -3.227224 1.000000 0.000000 0.000000 0.000000
3.376706 5.912104 9.105134 0.574872 0.978102 1.733174 -2.044155 -2.064975 -2.064975 -3.268948 1.000000 0.000000 0.000000 0.000000
3.113911 -3.609303 -0.060101 0.433935 -0.276998 -0.546108 2.161436 -1.935537 -1.935537 -3.006034 1.000000 0.000000 0.000000 0.000000
-2.064727 5.658986 1.626330 -0.927137 -0.108134 -1.537774 0.897152 -2.086271 -2.086271 -2.086271 1.000000 0.000000 0.000000 0.000000
-6.087998 -6.574308 0.061616 0.274696 -0.065528 -0.569727 1.510752 -2.648229 -2.648229 -3.740939 1.000000 0.000000 0.000000 0.000000
-3.014314 6.768834 -0.095879 -0.418033 0.101946 -0.834867 4.613684 -1.803697 -1.803697 -3.163452 1.000000 0.000000 0.000000 0.000000
6.012298 2.445771 2.026408 -1.213249 -0.342825 -1.509959 0.544145 -1.830319 -1.830319 -1.830319 1.000000 0.000000 0.000000 0.000000
2.322144 -1.975636 -0.072189 -0.051463 0.549743 -1.045440 4.705863 -2.667677 -2.667677 -3.773868 1.000000 0.000000 0.000000 0.000000
2.145378 -6.589815 1.895827 -1.468860 0.323585 -1.582376 1.014586 -2.464155 -2.464155 -2.464155 1.000000 0.000000 0.000000 0.000000
8.264111 6.398372 9.263487 0.862906 0.883251 1.736385 -1.522397 -2.103137 -2.103137 -3.307110 1.000000 0.000000 0.000000 0.000000
6.028775 6.111315 7.836920 1.202295 0.862902 1.675377 -0.847489 -1.418128 -1.418128 -2.622101 1.000000 0.000000 0.000000 0.000000
0.250751 -0.668725 2.486088 0.389078 0.389078 0.229910 5.895043 -2.441298 -2.441298 -2.109904 1.000000 0.000000 0.000000 0.000000
-0.423699 5.589455 -0.024574 0.648535 0.044230 -0.377330 1.723442 -2.012957 -2.012957 -4.175747 1.000000 0.000000 0.000000 0.000000
7.001777 -0.107291 1.503716 -1.275124 -0.361317 -1.537166 1.011104 -2.080528 -2.080528 -2.080528 1.000000 0.000000 0.000000 0.000000
6.428860 -4.751887 -0.052788 -0.557960 0.596026 -1.160645 3.336227 -1.679931 -1.679931 -3.401059 1.000000 0.000000 0.000000 0.000000
-0.442355 -7.451104 9.394906 0.785747 1.324486 1.755973 -1.833960 -1.049860 -1.049860 -2.253833 1.000000 0.000000 0.000000 0.000000
-5.043491 -2.375461 0.081386 0.672676 -0.107881 -0.949640 1.721831 -2.078681 -2.078681 -3.240555 1.000000 0.000000 0.000000 0.000000
-3.651161 -4.213247 2.776000 1.105701 1.105701 1.175541 3.414502 -2.657889 -2.657889 -2.540474 1.000000 0.000000 0.000000 0.000000
-1.219961 6.583884 0.011576 -0.708272 0.329430 -0.829954 1.386973 -2.370999 -2.370999 -3.018320 1.000000 0.000000 0.000000 0.000000
-0.807573 0.984530 2.099213 0.555691 0.555691 0.698584 2.595793 -2.984695 -2.984695 -3.344190 1.000000 0.000000 0.000000 0.000000
4.226950 -1.110591 -0.010342 -0.557310 0.542873 -0.761342 2.085644 -2.429131 -2.429131 -3.026891 1.000000 0.000000 0.000000 0.000000
7.767817 4.525622 7.046035 0.941752 1.397635 1.394637 -1.613283 -0.939952 -0.939952 -2.143924 1.000000 0.000000 0.000000 0.000000
2.647236 -4.565534 3.162220 0.979997 0.979997 1.126393 3.100711 -3.020785 -3.020785 -2.377451 1.000000 0.000000 0.000000 0.000000
7.545675 0.598219 0.086002 0.075466 0.174246 -0.792655 2.539443 -1.910045 -1.910045 -3.105524 1.000000 0.000000 0.000000 0.000000
-4.237561 7.093408 -0.009588 0.295181 -0.345297 -0.845101 2.696360 -2.606527 -2.606527 -3.346188 1.000000 0.000000 0.000000 0.000000
-0.613384 -7.111906 2.252994 -1.003412 -0.178952 -1.228966 2.336083 -2.552201 -2.552201 -2.552201 1.000000 0.000000 0.000000 0.000000
-1.127365 -4.351552 5.824368 0.375119 1.406937 1.418449 -1.444748 -0.965229 -0.965229 -2.169202 1.000000 0.000000 0.000000 0.000000
2.102145 0.981212 0.019507 -0.561832 0.698254 -1.156213 2.664520 -2.366873 -2.366873 -3.789207 1.000000 0.000000 0.000000 0.000000
0.326906 6.654801 -0.108454 -0.539674 0.217399 -1.099679 2.944429 -2.163324 -2.163324 -4.455180 1.000000 0.000000 0.000000 0.000000
1.955512 -5.918190 1.575969 -1.112147 0.284619 -1.361256 0.969986 -1.780178 -1.780178 -1.780178 1.000000 0.000000 0.000000 0.000000
4.328141 4.671896 1.985723 -1.134157 0.448337 -1.336223 2.486247 -1.904569 -1.904569 -1.904569 1.000000 0.000000 0.000000 0.000000
2.859745 -5.420591 1.553934 1.206325 1.206325 1.274493 4.391637 -2.926655 -2.926655 -2.429160 1.000000 0.000000 0.000000 0.000000
-1.234861 1.113706 0.595443 0.341011 0.341011 0.325282 3.225269 -2.587051 -2.587051 -3.017959 1.000000 0.000000 0.000000 0.000000
4.121111 -4.022055 0.823103 1.208878 1.208878 1.318096 6.704072 -2.195736 -2.195736 -2.882641 1.000000 0.000000 0.000000 0.000000
-5.884975 -6.679278 -0.014326 -0.648662 0.355783 -0.869335 2.336550 -2.665619 -2.665619 -4.173724 1.000000 0.000000 0.000000 0.000000
-3.240820 1.808440 -0.038201 0.124161 -0.177859 -0.425414 4.008689 -1.832665 -1.832665 -3.564430 1.000000 0.000000 0.000000 0.000000
0.096912 -7.329985 2.502281 -1.078412 -0.231066 -1.357088 1.208285 -2.324756 -2.324756 -2.324756 1.000000 0.000000 0.000000 0.000000
-9.828942 -9.918543 6.186060 0.979159 1.254433 1.761935 -0.477715 -1.035931 -1.035931 -2.239903 1.000000 0.000000 0.000000 0.000000
4.150947 4.678705 3.610774 0.673483 0.673483 0.725718 3.408132 -2.331374 -2.331374 -2.019335 1.000000 0.000000 0.000000 0.000000
-0.080482 2.955147 0.050310 -0.113514 0.346479 -1.359351 1.802212 -2.907188 -2.907188 -3.207880 1.000000 0.000000 0.000000 0.000000
3.063161 -6.641497 6.008581 0.601034 1.315525 1.653513 -1.791171 -2.157916 -2.157916 -3.361889 1.000000 0.000000 0.000000 0.000000
6.564607 0.808058 1.859470 -1.588526 -0.403609 -1.485653 0.745557 -2.184749 -2.184749 -2.184749 1.000000 0.000000 0.000000 0.000000
-6.450530 0.357353 0.067892 0.539793 0.306371 -0.727960 1.938225 -2.297055 -2.297055 -3.605342 1.000000 0.000000 0.000000 0.000000
6.596069 1.471547 1.832180 -1.517094 0.318839 -1.379247 1.356033 -2.578447 -2.578447 -2.578447 1.000000 0.000000 0.000000 0.000000
6.024881 5.122066 1.856455 -1.006086 -0.352860 -1.201245 1.954086 -2.638051 -2.638051 -2.638051 1.000000 0.000000 0.000000 0.000000
3.382443 -2.976620 -0.037426 0.641702 -0.038398 -0.436318 2.113005 -2.555917 -2.555917 -3.549707 1.000000 0.000000 0.000000 0.000000
5.932978 -7.067447 7.005269 1.119716 1.335937 1.642651 -1.201187 -1.730774 -1.730774 -2.934747 1.000000 0.000000 0.000000 0.000000
5.356875 -3.371342 -0.037640 -0.613549 0.130063 -0.874915 1.494534 -1.674236 -1.674236 -3.047766 1.000000 0.000000 0.000000 0.000000
-1.853381 -4.943949 -0.035514 0.254710 -0.294325 -0.614835 1.647985 -1.830717 -1.830717 -4.160631 1.000000 0.000000 0.000000 0.000000
6.977861 -0.083050 1.818036 -1.533537 0.197626 -1.219933 1.290886 -2.354553 -2.354553 -2.354553 1.000000 0.000000 0.000000 0.000000
2.000412 -6.091812 1.527746 -1.066381 0.343368 -1.290899 1.397599 -1.913904 -1.913904 -1.913904 1.000000 0.000000 0.000000 0.000000
5.631980 2.613680 0.012627 -0.455501 0.310332 -0.977113 3.258935 -1.705006 -1.705006 -4.289043 1.000000 0.000000 0.000000 0.000000
5.972908 -3.087514 0.053653 -0.011123 0.058822 -0.803299 4.432078 -2.073789 -2.073789 -3.653423 1.000000 0.000000 0.000000 0.000000
-2.339278 5.067387 1.558338 -1.135851 0.064908 -1.188433 1.329590 -1.885316 -1.885316 -1.885316 1.000000 0.000000 0.000000 0.000000
-0.105395 -1.226926 2.534909 1.024409 1.024409 0.892106 3.192486 -3.080917 -3.080917 -2.818311 1.000000 0.000000 0.000000 0.000000
1.046381 -8.002952 8.644341 0.455503 1.069868 1.316597 -0.623259 -0.958126 -0.958126 -2.162098 1.000000 0.000000 0.000000 0.000000
-5.205558 -5.786103 1.671612 -1.450772 -0.279980 -1.211916 0.487099 -2.578890 -2.578890 -2.578890 1.000000 0.000000 0.000000 0.000000
-5.533595 -0.064828 0.077477 0.546177 -0.185790 -0.751389 2.880464 -1.926644 -1.926644 -3.993544 1.000000 0.000000 0.000000 0.000000
-4.355496 2.692265 3.032371 0.414874 0.414874 0.256987 4.156934 -3.146266 -3.146266 -2.551855 1.000000 0.000000 0.000000 0.000000
4.150840 5.998386 5.707452 0.893224 1.385693 1.448276 -1.891216 -0.963140 -0.963140 -2.167113 1.000000 0.000000 0.000000 0.000000
-4.761887 4.111245 1.989742 0.218656 0.218656 0.079190 2.938634 -1.942847 -1.942847 -1.250899 1.000000 0.000000 0.000000 0.000000
3.967856 -5.407885 3.536634 0.767567 0.767567 0.724853 1.822922 -2.835848 -2.835848 -2.643494 1.000000 0.000000 0.000000 0.000000
-2.200128 6.180152 1.541831 -1.037405 -0.068986 -1.202710 1.901805 -1.720967 -1.720967 -1.720967 1.000000 0.000000 0.000000 0.000000
-4.200120 -5.024185 3.234876 1.063852 1.063852 1.151880 1.997896 -2.326150 -2.326150 -2.733180 1.000000 0.000000 0.000000 0.000000
-5.574881 0.364489 0.034039 0.689357 -0.114743 -0.770917 2.301755 -1.816292 -1.816292 -3.516668 1.000000 0.000000 0.000000 0.000000
-4.353738 6.345989 8.038911 0.623422 0.829770 1.725075 -1.765050 -1.766091 -1.766091 -2.970064 1.000000 0.000000 0.000000 0.000000
2.370654 -6.469771 2.499902 -1.279872 -0.317627 -1.167701 1.325234 -2.716837 -2.716837 -2.716837 1.000000 0.000000 0.000000 0.000000
-1.646551 3.621012 -0.067682 0.422385 0.012485 -0.359162 1.691165 -2.350975 -2.350975 -3.816106 1.000000 0.000000 0.000000 0.000000
1.051825 -0.647320 1.465299 1.191381 1.191381 1.082745 2.521135 -2.235778 -2.235778 -2.283495 1.000000 0.000000 0.000000 0.000000
-3.919742 -2.710995 -0.007267 -0.480243 0.036056 -0.756922 2.176401 -1.949528 -1.949528 -3.311112 1.000000 0.000000 0.000000 0.000000
-7.680509 -7.670055 5.129600 0.530415 0.785474 1.610703 -1.945226 -1.825451 -1.825451 -3.029424 1.000000 0.000000 0.000000 0.000000
1.461037 -5.451944 2.120302 -1.129413 0.260033 -1.308889 1.755692 -2.772907 -2.772907 -2.772907 1.000000 0.000000 0.000000 0.000000
-5.112938 -5.334828 1.955251 -0.982972 0.190251 -1.234207 1.545069 -2.570329 -2.570329 -2.570329 1.000000 0.000000 0.000000 0.000000
4.580818 5.401138 2.180719 -1.298839 0.072125 -1.445858 0.704799 -2.153189 -2.153189 -2.153189 1.000000 0.000000 0.000000 0.000000
-2.984405 7.985559 0.024375 -0.458786 0.329637 -1.090669 5.189337 -1.668568 -1.668568 -3.126769 1.000000 0.000000 0.000000 0.000000
2.970766 3.766579 6.933613 0.953380 1.268670 1.476336 -1.328758 -1.660159 -1.660159 -2.864132 1.000000 0.000000 0.000000 0.000000
-4.684352 -4.627638 1.502838 -1.302204 -0.393895 -1.293457 1.305989 -2.310225 -2.310225 -2.310225 1.000000 0.000000 0.000000 0.000000
6.097303 1.732418 1.827528 -1.254412 0.526321 -1.195003 1.757777 -2.139289 -2.139289 -2.139289 1.000000 0.000000 0.000000 0.000000
-4.465676 1.048804 -0.038539 0.099714 0.173944 -0.894738 3.751847 -1.622741 -1.622741 -4.091419 1.000000 0.000000 0.000000 0.000000
4.304531 -4.074943 -0.003008 0.241990 0.003561 -1.003043 1.919913 -2.245586 -2.245586 -3.214042 1.000000 0.000000 0.000000 0.000000
-3.099590 -0.530540 0.004094 0.323612 0.053858 -0.755088 1.738646 -2.208184 -2.208184 -3.138129 1.000000 0.000000 0.000000 0.000000
-6.905252 4.476452 6.764158 0.607890 1.333800 1.756253 -2.184784 -1.448217 -1.448217 -2.652189 1.000000 0.000000 0.000000 0.000000
-3.478405 -4.822833 0.087253 0.531343 -0.352224 -1.015785 1.626015 -2.012452 -2.012452 -3.998568 1.000000 0.000000 0.000000 0.000000
-0.571562 -6.403057 0.006464 -0.140665 0.221704 -0.894352 1.444677 -2.744977 -2.744977 -3.210705 1.000000 0.000000 0.000000 0.000000
9.964232 -9.236181 8.368293 1.361222 1.033319 1.356881 -0.613279 -1.439230 -1.439230 -2.643203 1.000000 0.000000 0.000000 0.000000
5.469179 -2.510632 3.618485 1.167284 1.167284 1.168482 5.324112 -2.300708 -2.300708 -2.324100 1.000000 0.000000 0.000000 0.000000
3.778104 -2.585761 -0.008880 -0.309930 0.315019 -1.302297 1.457664 -2.304953 -2.304953 -4.123946 1.000000 0.000000 0.000000 0.000000
-3.502640 0.620297 -0.034833 -0.519440 0.608318 -0.719270 4.892658 -1.884566 -1.884566 -4.282434 1.000000 0.000000 0.000000 0.000000
4.985683 4.715855 1.802925 -1.022521 -0.190403 -1.151120 1.745700 -2.393948 -2.393948 -2.393948 1.000000 0.000000 0.000000 0.000000
5.114512 -0.182593 0.028702 -0.695229 0.362262 -1.350197 1.491221 -1.816900 -1.816900 -3.354000 1.000000 0.000000 0.000000 0.000000
-2.784443 -4.819978 -0.019690 0.231222 -0.284965 -0.540423 1.689304 -1.712119 -1.712119 -3.688028 1.000000 0.000000 0.000000 0.000000
-2.599794 -5.469177 0.043906 0.314087 -0.104700 -0.840033 1.939925 -1.615861 -1.615861 -3.772863 1.000000 0.000000 0.000000 0.000000
2.529174 -6.385245 1.770931 -1.446382 0.381189 -1.151627 2.847144 -2.229838 -2.229838 -2.229838 1.000000 0.000000 0.000000 0.000000
-2.555206 -2.793254 2.481937 0.638950 0.638950 0.472318 3.397024 -2.051792 -2.051792 -1.948021 1.000000 0.000000 0.000000 0.000000
-5.556014 7.528595 0.037692 -0.562394 0.098248 -1.034153 1.830319 -1.771864 -1.771864 -3.112187 1.000000 0.000000 0.000000 0.000000
-6.239299 2.073395 2.339717 -1.305796 -0.483261 -1.264356 0.817585 -1.850320 -1.850320 -1.850320 1.000000 0.000000 0.000000 0.000000
-4.380426 -5.045972 0.025878 0.232990 0.336027 -0.589620 3.736454 -2.055822 -2.055822 -3.408624 1.000000 0.000000 0.000000 0.000000
0.337391 0.336674 2.022282 1.187349 1.187349 1.293796 3.123855 -2.407448 -2.407448 -2.129298 1.000000 0.000000 0.000000 0.000000
2.277417 -0.800408 0.022178 0.244255 0.267967 -0.510280 4.991876 -1.924360 -1.924360 -4.058291 1.000000 0.000000 0.000000 0.000000
-6.573769 3.849300 -0.048836 0.527920 -0.272174 -0.802754 2.381212 -1.725974 -1.725974 -3.033169 1.000000 0.000000 0.000000 0.000000
1.975485 -6.154359 1.535259 -1.259323 -0.052844 -1.327965 2.810556 -2.043977 -2.043977 -2.043977 1.000000 0.000000 0.000000 0.000000
-4.012612 8.153552 7.457130 1.110122 0.992281 1.272644 -0.677374 -1.824162 -1.824162 -3.028135 1.000000 0.000000 0.000000 0.000000
-4.704069 -5.324624 2.396670 -0.953861 -0.418696 -1.221284 0.689045 -2.502700 -2.502700 -2.502700 1.000000 0.000000 0.000000 0.000000
-5.513374 -0.392321 5.798077 1.332507 0.746313 1.270311 -0.552269 -1.317636 -1.317636 -2.521608 1.000000 0.000000 0.000000 0.000000
7.160940 1.017704 -0.081802 -0.575527 0.700478 -0.792906 2.176151 -2.088813 -2.088813 -3.800387 1.000000 0.000000 0.000000 0.000000
3.502249 5.129372 2.469005 1.017340 1.017340 1.032594 2.663514 -2.582821 -2.582821 -2.832434 1.000000 0.000000 0.000000 0.000000
2.811371 -1.474788 0.020639 -0.611396 0.655609 -0.960341 2.683860 -2.140336 -2.140336 -3.455596 1.000000 0.000000 0.000000 0.000000
-4.145398 4.581902 2.619887 0.227751 0.227751 0.181044 3.081713 -2.281893 -2.281893 -1.748369 1.000000 0.000000 0.000000 0.000000
3.452242 -5.436236 0.097350 0.156243 -0.171837 -0.725783 1.565571 -1.689420 -1.689420 -4.204790 1.000000 0.000000 0.000000 0.000000
-9.973804 -6.082497 7.463458 1.040934 1.543370 1.258411 -0.776056 -1.531747 -1.531747 -2.735720 1.000000 0.000000 0.000000 0.000000
-1.252210 -5.383314 -0.039096 -0.650391 0.486408 -1.346069 1.401646 -1.718305 -1.718305 -3.166710 1.000000 0.000000 0.000000 0.000000
-5.267175 4.287064 -0.020681 -0.129352 0.564887 -1.186927 2.272209 -1.914485 -1.914485 -3.177320 1.000000 0.000000 0.000000 0.000000
0.068373 -6.736936 1.704353 -1.000014 -0.031559 -1.420726 0.591069 -2.396525 -2.396525 -2.396525 1.000000 0.000000 0.000000 0.000000
-2.485751 6.307370 1.528097 -1.149664 0.283194 -1.363428 2.653415 -1.942822 -1.942822 -1.942822 1.000000 0.000000 0.000000 0.000000
1.821232 4.227907 -0.014198 -0.268940 0.349060 -0.719360 2.176957 -1.689835 -1.689835 -3.106647 1.000000 0.000000 0.000000 0.000000
2.829958 5.873003 0.099503 -0.413273 0.184356 -0.910349 2.577781 -2.686084 -2.686084 -3.192627 1.000000 0.000000 0.000000 0.000000
-6.681103 -5.144743 9.133764 0.792694 1.152166 1.352193 -1.173694 -1.062415 -1.062415 -2.266387 1.000000 0.000000 0.000000 0.000000
3.667633 -4.935998 2.830499 1.184104 1.184104 1.092918 2.101868 -2.366798 -2.366798 -2.922970 1.000000 0.000000 0.000000 0.000000
-0.427967 1.385937 0.537015 1.091759 1.091759 1.183766 1.795630 -2.145924 -2.145924 -2.166880 1.000000 0.000000 0.000000 0.000000
-5.478127 6.510192 8.779513 0.576722 1.058486 1.684849 -0.456130 -1.208513 -1.208513 -2.412486 1.000000 0.000000 0.000000 0.000000
2.231228 -2.993210 -0.035318 -0.576975 0.271325 -1.230310 3.209213 -1.857198 -1.857198 -3.728712 1.000000 0.000000 0.000000 0.000000
3.394412 -3.683207 3.461474 0.825676 0.825676 0.844656 1.837073 -3.052051 -3.052051 -3.032082 1.000000 0.000000 0.000000 0.000000
-0.581580 -0.742350 -0.048301 -0.612095 0.332696 -1.308266 2.198781 -2.545372 -2.545372 -4.555107 1.000000 0.000000 0.000000 0.000000
-5.962426 3.661295 0.115607 -0.004053 0.684298 -1.395004 5.030414 -1.963557 -1.963557 -3.060985 1.000000 0.000000 0.000000 0.000000
-2.040128 7.592877 0.000880 -0.641219 0.094659 -0.836625 2.060423 -2.793207 -2.793207 -3.419988 1.000000 0.000000 0.000000 0.000000
3.295406 -1.017122 0.079671 0.657372 -0.325570 -0.810706 2.181740 -1.855630 -1.855630 -3.526489 1.000000 0.000000 0.000000 0.000000
6.959733 0.025587 1.500012 -0.943966 0.416727 -1.154914 1.406728 -2.713357 -2.713357 -2.713357 1.000000 0.000000 0.000000 0.000000
2.670821 0.774673 5.954387 1.225402 0.848370 1.369253 -1.403515 -1.589379 -1.589379 -2.793352 1.000000 0.000000 0.000000 0.000000
5.077345 4.892090 1.914173 -1.367818 -0.490270 -1.563897 0.420454 -2.334309 -2.334309 -2.334309 1.000000 0.000000 0.000000 0.000000
5.533414 5.870069 0.015804 0.128081 -0.235173 -0.702787 2.404048 -2.397789 -2.397789 -3.087063 1.000000 0.000000 0.000000 0.000000
-6.538588 4.853661 0.018170 0.229241 0.280724 -1.026471 2.633208 -2.065493 -2.065493 -3.590390 1.000000 0.000000 0.000000 0.000000
3.193834 2.642890 -0.072121 0.625608 -0.033121 -1.042016 2.113915 -2.109487 -2.109487 -3.727303 1.000000 0.000000 0.000000 0.000000
-1.402823 5.566476 0.007724 -0.264269 0.630004 -0.723777 5.618553 -1.820042 -1.820042 -3.263093 1.000000 0.000000 0.000000 0.000000
-5.924590 1.002149 -0.070144 -0.581431 0.432057 -0.915588 1.416552 -1.625117 -1.625117 -4.598866 1.000000 0.000000 0.000000 0.000000
1.370342 -0.353646 0.038066 0.071472 -0.311203 -0.530461 5.998537 -2.974284 -2.974284 -3.402263 1.000000 0.000000 0.000000 0.000000
-5.851444 3.997219 0.067087 -0.159349 0.293361 -1.310359 1.658220 -2.623301 -2.623301 -3.818796 1.000000 0.000000 0.000000 0.000000
-2.040537 -7.229056 9.373146 1.367555 1.064827 1.242551 -1.225140 -1.882102 -1.882102 -3.086075 1.000000 0.000000 0.000000 0.000000
-0.182051 3.015830 -0.023308 0.461481 0.302394 -0.541900 3.248670 -2.449313 -2.449313 -4.475871 1.000000 0.000000 0.000000 0.000000
5.117812 5.182547 1.851370 -1.179251 0.385674 -1.466932 0.804261 -1.872422 -1.872422 -1.872422 1.000000 0.000000 0.000000 0.000000
-0.085298 -7.074616 1.626051 -1.076834 -0.011516 -1.159133 0.550634 -2.542438 -2.542438 -2.542438 1.000000 0.000000 0.000000 0.000000
-0.650853 6.603240 0.079605 0.555195 0.017099 -0.901561 1.989576 -2.520996 -2.520996 -3.308534 1.000000 0.000000 0.000000 0.000000
-5.708855 5.023795 -0.014513 -0.340924 0.407762 -0.981601 1.541690 -2.734600 -2.734600 -3.844755 1.000000 0.000000 0.000000 0.000000
-1.946271 -3.792316 0.005977 -0.539137 0.542044 -0.772822 1.790066 -1.765295 -1.765295 -3.286469 1.000000 0.000000 0.000000 0.000000
3.220749 -5.911396 0.007513 -0.146265 0.323426 -1.296947 1.524950 -1.975757 -1.975757 -3.153275 1.000000 0.000000 0.000000 0.000000
5.046077 5.567144 0.042969 -0.376329 0.005897 -0.764219 1.397749 -1.650033 -1.650033 -3.537612 1.000000 0.000000 0.000000 0.000000
-0.633588 0.140178 0.556582 0.345632 0.345632 0.484655 2.193145 -3.120011 -3.120011 -3.716273 1.000000 0.000000 0.000000 0.000000
7.002981 0.091980 1.552723 -1.447585 -0.392635 -1.563873 1.912105 -1.945358 -1.945358 -1.945358 1.000000 0.000000 0.000000 0.000000
6.789213 -0.099391 1.937029 -1.353568 -0.308078 -1.316689 0.551255 -2.734148 -2.734148 -2.734148 1.000000 0.000000 0.000000 0.000000
0.223779 -0.190606 2.240291 1.076423 1.076423 1.195903 2.547680 -2.914270 -2.914270 -3.144651 1.000000 0.000000 0.000000 0.000000
2.556942 2.672743 1.431015 0.618378 0.618378 0.476641 2.825260 -1.923061 -1.923061 -2.544073 1.000000 0.000000 0.000000 0.000000
-4.724046 -3.128587 3.265408 0.627650 0.627650 0.576111 4.180407 -3.104603 -3.104603 -2.723779 1.000000 0.000000 0.000000 0.000000
4.172824 5.171922 7.338679 1.387724 1.100828 1.373712 -0.824314 -1.108310 -1.108310 -2.312283 1.000000 0.000000 0.000000 0.000000
5.071195 4.761748 1.732487 -1.571535 0.377869 -1.286325 2.021031 -1.847828 -1.847828 -1.847828 1.000000 0.000000 0.000000 0.000000
1.862240 -1.108817 9.756098 0.810550 0.975655 1.293741 -1.490561 -1.097878 -1.097878 -2.301850 1.000000 0.000000 0.000000 0.000000
-4.846028 4.843603 -0.065012 -0.006906 0.298649 -1.329984 1.960356 -2.581361 -2.581361 -3.769006 1.000000 0.000000 0.000000 0.000000
-5.108205 -4.940765 1.531131 -1.051807 -0.352738 -1.121166 1.550520 -2.753016 -2.753016 -2.753016 1.000000 0.000000 0.000000 0.000000
0.140092 -6.058201 0.014996 -0.610520 0.560360 -1.399328 3.197295 -2.016630 -2.016630 -3.698669 1.000000 0.000000 0.000000 0.000000
4.850949 4.117094 1.800388 1.014693 1.014693 1.102774 3.124294 -2.239274 -2.239274 -1.554863 1.000000 0.000000 0.000000 0.000000
0.203696 -0.223245 2.552140 0.724394 0.724394 0.602096 3.022719 -1.983842 -1.983842 -2.509137 1.000000 0.000000 0.000000 0.000000
2.866300 8.320159 5.118785 1.121576 1.556379 1.601349 -2.023621 -1.885237 -1.885237 -3.089210 1.000000 0.000000 0.000000 0.000000
-4.792953 5.137318 2.221513 1.196344 1.196344 1.227689 3.767739 -2.469999 -2.469999 -2.542891 1.000000 0.000000 0.000000 0.000000
7.677137 6.912816 5.633229 0.466296 1.512225 1.415318 -2.044675 -1.522416 -1.522416 -2.726388 1.000000 0.000000 0.000000 0.000000
-2.009508 5.067312 0.095081 0.425350 -0.116918 -0.383445 5.234367 -1.614831 -1.614831 -3.928496 1.000000 0.000000 0.000000 0.000000
4.797866 4.553064 0.749800 0.991960 0.991960 0.925748 2.405283 -2.066071 -2.066071 -2.187033 1.000000 0.000000 0.000000 0.000000
-3.473457 1.049870 0.073216 -0.082767 0.039603 -0.909432 1.473435 -2.662408 -2.662408 -4.377627 1.000000 0.000000 0.000000 0.000000
0.814045 5.069552 -0.011545 -0.518412 0.412389 -0.845295 1.706214 -1.814406 -1.814406 -4.121161 1.000000 0.000000 0.000000 0.000000
3.087773 0.527064 -0.001176 -0.044035 0.454433 -0.749341 2.055574 -2.851123 -2.851123 -3.045966 1.000000 0.000000 0.000000 0.000000
1.680372 -5.824298 6.546694 0.389760 1.095752 1.493624 -1.863019 -1.903293 -1.903293 -3.107266 1.000000 0.000000 0.000000 0.000000
5.614696 2.869430 1.723342 -1.490733 -0.140058 -1.557313 0.982757 -2.144278 -2.144278 -2.144278 1.000000 0.000000 0.000000 0.000000
2.694990 5.301552 -0.023045 -0.617876 0.540984 -1.323295 3.286369 -1.795833 -1.795833 -3.080836 1.000000 0.000000 0.000000 0.000000
-1.412006 -4.029788 7.944112 0.443093 0.741776 1.622464 -1.591256 -1.186114 -1.186114 -2.390086 1.000000 0.000000 0.000000 0.000000
-4.859993 5.144946 3.267338 0.560035 0.560035 0.473551 3.606799 -2.087204 -2.087204 -2.081129 1.000000 0.000000 0.000000 0.000000
-4.856973 -5.347058 2.112596 1.138706 1.138706 1.260739 2.333469 -2.963729 -2.963729 -2.397540 1.000000 0.000000 0.000000 0.000000
-4.218802 -0.528893 8.430388 1.343829 0.912498 1.603722 -1.949824 -1.879362 -1.879362 -3.083334 1.000000 0.000000 0.000000 0.000000
-5.056589 -4.890575 -0.029365 0.049191 -0.180240 -0.688735 4.931400 -2.013444 -2.013444 -4.151897 1.000000 0.000000 0.000000 0.000000
1.897854 4.768883 0.154916 0.058163 -0.245151 -0.558906 1.843276 -1.930435 -1.930435 -3.229274 1.000000 0.000000 0.000000 0.000000
2.542634 -4.211499 1.650712 0.438430 0.438430 0.431292 4.561566 -2.977095 -2.977095 -2.509266 1.000000 0.000000 0.000000 0.000000
-2.181699 7.601035 0.040493 0.133256 -0.157508 -0.947060 2.581732 -2.342657 -2.342657 -3.105698 1.000000 0.000000 0.000000 0.000000
0.188372 -6.842368 1.731000 -1.298865 0.362158 -1.343165 0.599010 -2.186482 -2.186482 -2.186482 1.000000 0.000000 0.000000 0.000000
-3.283250 -2.024397 -0.038590 -0.311972 0.141408 -1.265546 1.525636 -2.075916 -2.075916 -3.117761 1.000000 0.000000 0.000000 0.000000
-1.507024 0.959437 6.864950 0.825220 1.045134 1.612608 -1.462395 -1.222697 -1.222697 -2.426670 1.000000 0.000000 0.000000 0.000000
0.060145 -0.663106 2.578476 1.130744 1.130744 1.033684 2.476941 -3.159552 -3.159552 -3.167351 1.000000 0.000000 0.000000 0.000000
-3.924525 0.807177 -0.090033 0.524442 0.130460 -0.504990 3.386936 -2.092511 -2.092511 -3.771414 1.000000 0.000000 0.000000 0.000000
4.657066 0.186663 -0.049142 0.268476 -0.084647 -0.518790 2.616344 -1.677514 -1.677514 -3.422840 1.000000 0.000000 0.000000 0.000000
3.466642 3.606612 3.649897 0.215934 0.215934 0.105361 1.754888 -2.274938 -2.274938 -1.871561 1.000000 0.000000 0.000000 0.000000
2.033283 -5.949761 1.699103 -1.419901 -0.347422 -1.086122 0.504569 -2.415066 -2.415066 -2.415066 1.000000 0.000000 0.000000 0.000000
7.041065 0.068825 1.599713 -1.483463 0.407353 -1.397430 2.121783 -2.357316 -2.357316 -2.357316 1.000000 0.000000 0.000000 0.000000
4.500623 -6.719744 0.049646 -0.396054 0.358243 -0.896913 3.145012 -1.807592 -1.807592 -3.151588 1.000000 0.000000 0.000000 0.000000
-0.097601 -7.016209 1.568970 -0.901703 -0.369094 -1.188706 1.548413 -1.772885 -1.772885 -1.772885 1.000000 0.000000 0.000000 0.000000
-5.066263 -2.761943 0.047112 0.181853 0.128259 -0.403680 1.790112 -2.209726 -2.209726 -3.459343 1.000000 0.000000 0.000000 0.000000
-0.600915 -6.486292 1.796423 -1.099779 -0.106146 -1.514043 2.829471 -2.582264 -2.582264 -2.582264 1.000000 0.000000 0.000000 0.000000
2.335652 8.581476 6.261156 0.757637 1.406884 1.673761 -0.617477 -1.002723 -1.002723 -2.206696 1.000000 0.000000 0.000000 0.000000
4.509743 -4.835044 0.026980 -0.376767 0.615417 -1.325402 4.299316 -1.662375 -1.662375 -3.787658 1.000000 0.000000 0.000000 0.000000
-4.648369 -5.622795 1.896604 -1.304878 -0.005095 -1.585386 0.835372 -1.749328 -1.749328 -1.749328 1.000000 0.000000 0.000000 0.000000
1.908731 -5.930828 1.571926 -1.296374 0.411750 -1.374188 2.138631 -2.141285 -2.141285 -2.141285 1.000000 0.000000 0.000000 0.000000
5.031143 4.508121 1.825652 -1.272009 0.216373 -1.511247 2.683686 -2.754188 -2.754188 -2.754188 1.000000 0.000000 0.000000 0.000000
-5.618404 5.103927 0.083779 -0.681491 0.381141 -0.738737 1.834804 -1.654929 -1.654929 -3.163247 1.000000 0.000000 0.000000 0.000000
-3.326032 -0.935713 -0.081149 -0.250205 0.237231 -1.320285 2.022604 -1.729973 -1.729973 -3.591232 1.000000 0.000000 0.000000 0.000000
7.184228 9.898380 9.815861 1.327292 0.973987 1.671798 -0.970167 -1.055502 -1.055502 -2.259475 1.000000 0.000000 0.000000 0.000000
0.163177 -6.879073 1.732601 -1.574827 -0.257851 -1.532183 1.580328 -1.731126 -1.731126 -1.731126 1.000000 0.000000 0.000000 0.000000
-2.389907 3.372063 0.014379 0.117678 -0.255776 -0.916983 1.902402 -2.512795 -2.512795 -4.392132 1.000000 0.000000 0.000000 0.000000
6.865164 0.111868 1.546351 -0.933515 -0.099037 -1.497724 2.885990 -2.255861 -2.255861 -2.255861 1.000000 0.000000 0.000000 0.000000
3.107856 -2.752542 1.904593 0.674092 0.674092 0.825519 1.999433 -2.396148 -2.396148 -1.705922 1.000000 0.000000 0.000000 0.000000
3.113920 -4.851600 3.894062 1.053480 1.053480 0.945123 2.717789 -2.323979 -2.323979 -1.722278 1.000000 0.000000 0.000000 0.000000
9.767120 -7.535946 7.769493 0.800557 0.875088 1.662371 -0.447099 -1.504808 -1.504808 -2.708781 1.000000 0.000000 0.000000 0.000000
-5.413431 2.798370 2.035304 -1.101915 0.081743 -1.536719 0.884834 -1.875694 -1.875694 -1.875694 1.000000 0.000000 0.000000 0.000000
-5.165704 -2.569491 3.018502 0.479472 0.479472 0.387545 2.761315 -2.745003 -2.745003 -2.257902 1.000000 0.000000 0.000000 0.000000
2.086558 3.409485 0.096352 0.422439 0.038501 -0.857319 2.418243 -2.094559 -2.094559 -3.525264 1.000000 0.000000 0.000000 0.000000
3.385000 -5.316175 2.073135 0.835159 0.835159 0.669076 3.142427 -2.121666 -2.121666 -2.072910 1.000000 0.000000 0.000000 0.000000
3.298420 -3.939214 2.442491 0.897367 0.897367 1.056876 4.174238 -1.948233 -1.948233 -1.319247 1.000000 0.000000 0.000000 0.000000
6.912693 0.211985 1.509377 -1.526885 0.259595 -1.241610 1.303400 -2.149522 -2.149522 -2.149522 1.000000 0.000000 0.000000 0.000000
6.681282 9.256544 8.236904 0.698037 1.078765 1.461621 -0.680028 -1.177455 -1.177455 -2.381427 1.000000 0.000000 0.000000 0.000000
6.738820 -5.892842 0.040319 0.602399 -0.285734 -0.908698 1.626754 -1.615357 -1.615357 -3.416419 1.000000 0.000000 0.000000 0.000000
1.394881 -6.622752 0.014871 0.699508 -0.307616 -0.382782 2.010471 -1.811449 -1.811449 -4.302260 1.000000 0.000000 0.000000 0.000000
-5.074720 -3.686241 0.597219 0.569545 0.569545 0.649351 2.731838 -2.858696 -2.858696 -3.250942 1.000000 0.000000 0.000000 0.000000
-5.105485 3.271273 3.847925 0.991856 0.991856 0.961164 5.093418 -2.115299 -2.115299 -1.590838 1.000000 0.000000 0.000000 0.000000
-3.425152 5.556817 0.021784 -0.605948 0.475198 -1.276236 1.793232 -1.816907 -1.816907 -4.108195 1.000000 0.000000 0.000000 0.000000
7.201770 -4.130666 -0.077608 -0.640503 0.577461 -1.401298 1.637121 -2.906539 -2.906539 -4.210225 1.000000 0.000000 0.000000 0.000000
5.432081 1.868181 1.504494 -1.306197 -0.327364 -1.212297 2.248992 -2.595538 -2.595538 -2.595538 1.000000 0.000000 0.000000 0.000000
-7.924179 -4.153802 0.014931 0.589379 0.343432 -0.363647 3.395304 -1.748781 -1.748781 -3.694039 1.000000 0.000000 0.000000 0.000000
-3.494007 -4.090504 1.577053 1.019615 1.019615 1.148325 5.109266 -2.338961 -2.338961 -2.080039 1.000000 0.000000 0.000000 0.000000
4.941603 4.626984 1.603058 -1.032425 -0.308144 -1.151026 1.883759 -2.445087 -2.445087 -2.445087 1.000000 0.000000 0.000000 0.000000
6.998566 3.600383 0.005992 -0.135076 0.297234 -0.874845 1.667306 -1.700657 -1.700657 -4.544467 1.000000 0.000000 0.000000 0.000000
1.716833 -6.199580 2.551961 -1.286215 -0.006304 -1.563668 1.729097 -2.299885 -2.299885 -2.299885 1.000000 0.000000 0.000000 0.000000
7.318675 -2.907137 -0.018952 -0.175335 0.320969 -1.243604 2.110918 -1.622253 -1.622253 -3.743750 1.000000 0.000000 0.000000 0.000000
1.915773 5.458674 0.020769 -0.226359 0.022383 -0.745703 1.838224 -2.710789 -2.710789 -4.532153 1.000000 0.000000 0.000000 0.000000
-7.270201 -4.188532 -0.053338 -0.603953 0.626458 -0.760561 2.563611 -2.401685 -2.401685 -3.179058 1.000000 0.000000 0.000000 0.000000
2.993904 3.328934 3.465291 0.209107 0.209107 0.303217 3.355843 -2.073020 -2.073020 -1.643627 1.000000 0.000000 0.000000 0.000000
6.436424 -2.097927 0.123780 0.615407 -0.170377 -0.506961 1.482888 -2.708742 -2.708742 -3.038936 1.000000 0.000000 0.000000 0.000000
-2.371556 5.801457 1.816848 -1.535612 0.325968 -1.250366 0.861055 -2.810348 -2.810348 -2.810348 1.000000 0.000000 0.000000 0.000000
3.397172 1.226427 0.062372 -0.386255 0.255321 -1.063749 1.742649 -2.002237 -2.002237 -3.700648 1.000000 0.000000 0.000000 0.000000
-0.816144 -1.376736 2.025679 1.224779 1.224779 1.187624 6.279120 -2.870912 -2.870912 -2.615639 1.000000 0.000000 0.000000 0.000000
-4.064408 3.005625 3.487764 0.863195 0.863195 0.898326 3.743904 -2.047047 -2.047047 -1.369652 1.000000 0.000000 0.000000 0.000000
9.049393 9.356926 9.574669 1.128292 0.917807 1.732044 -0.677493 -1.468490 -1.468490 -2.672463 1.000000 0.000000 0.000000 0.000000
-0.560493 0.489669 7.420181 1.332551 1.169283 1.348651 -1.965374 -1.080946 -1.080946 -2.284919 1.000000 0.000000 0.000000 0.000000
-7.247211 -7.709910 0.034439 -0.121981 0.634154 -1.395297 2.491058 -2.820942 -2.820942 -3.603626 1.000000 0.000000 0.000000 0.000000
4.376879 -7.525989 -0.022870 -0.456718 0.667253 -1.111791 1.497082 -1.884176 -1.884176 -3.312448 1.000000 0.000000 0.000000 0.000000
-7.061658 7.079472 -0.009343 -0.414026 0.418831 -0.849172 1.954626 -1.885462 -1.885462 -4.059919 1.000000 0.000000 0.000000 0.000000
-0.307704 -6.346985 1.728013 -1.360771 -0.048769 -1.567091 1.572181 -1.987207 -1.987207 -1.987207 1.000000 0.000000 0.000000 0.000000
1.313537 -5.861986 1.691377 -1.580557 0.433772 -1.116644 2.133862 -1.887497 -1.887497 -1.887497 1.000000 0.000000 0.000000 0.000000
-0.033164 0.932499 2.901051 0.672400 0.672400 0.673627 2.386026 -2.002491 -2.002491 -1.580237 1.000000 0.000000 0.000000 0.000000
5.257984 -5.472112 9.640479 1.042849 1.276794 1.307377 -0.578650 -1.421838 -1.421838 -2.625811 1.000000 0.000000 0.000000 0.000000
-1.841954 5.362207 2.251141 -1.531070 0.403805 -1.564617 1.840221 -1.873344 -1.873344 -1.873344 1.000000 0.000000 0.000000 0.000000
1.709677 -1.571234 -0.012285 -0.097858 0.016493 -1.108126 1.844470 -2.187112 -2.187112 -3.114833 1.000000 0.000000 0.000000 0.000000
4.710058 5.744524 2.346187 -1.184448 0.129370 -1.117434 0.847199 -2.439224 -2.439224 -2.439224 1.000000 0.000000 0.000000 0.000000
-1.250548 1.246023 -0.030931 0.530519 0.143989 -0.896725 1.407877 -2.987171 -2.987171 -3.000620 1.000000 0.000000 0.000000 0.000000
-2.951955 0.574168 -0.038928 -0.222979 0.566856 -0.788367 1.783204 -2.272645 -2.272645 -3.020342 1.000000 0.000000 0.000000 0.000000
9.053708 -4.730067 6.839399 0.384072 1.145974 1.376896 -0.703738 -1.363470 -1.363470 -2.567443 1.000000 0.000000 0.000000 0.000000
-1.172465 4.325382 9.907949 1.165385 0.966526 1.426259 -1.144032 -1.863249 -1.863249 -3.067222 1.000000 0.000000 0.000000 0.000000
-1.333734 -0.309541 3.275440 0.470529 0.470529 0.586687 2.951840 -3.201664 -3.201664 -3.371655 1.000000 0.000000 0.000000 0.000000
-0.002713 0.297661 3.728570 0.189734 0.189734 0.177194 1.746799 -2.051917 -2.051917 -1.992435 1.000000 0.000000 0.000000 0.000000
-5.009184 -5.146768 1.565042 -1.494962 0.344806 -1.103323 0.529222 -2.548059 -2.548059 -2.548059 1.000000 0.000000 0.000000 0.000000
-3.854528 -4.694757 3.243547 1.161753 1.161753 1.227945 4.099952 -2.771978 -2.771978 -2.471983 1.000000 0.000000 0.000000 0.000000
4.653098 5.372836 2.816711 0.318052 0.318052 0.159282 2.387926 -2.512529 -2.512529 -1.914786 1.000000 0.000000 0.000000 0.000000
-6.136886 1.963014 1.534015 -1.171072 -0.151005 -1.543275 1.904466 -2.465703 -2.465703 -2.465703 1.000000 0.000000 0.000000 0.000000
1.536587 -5.898647 1.818618 -1.395706 -0.249769 -1.515290 1.197089 -1.742994 -1.742994 -1.742994 1.000000 0.000000 0.000000 0.000000
-6.168855 -7.383972 0.077060 0.610128 0.056641 -1.033727 2.804340 -1.847672 -1.847672 -4.387440 1.000000 0.000000 0.000000 0.000000
-2.793021 1.804450 -0.028548 -0.320060 0.168127 -1.083788 2.194494 -1.952192 -1.952192 -3.703507 1.000000 0.000000 0.000000 0.000000
1.347756 -3.849261 -0.077002 0.528515 0.351738 -0.775736 1.890765 -1.946527 -1.946527 -4.085400 1.000000 0.000000 0.000000 0.000000
5.269270 5.445947 2.478975 1.168918 1.168918 1.015350 1.761603 -2.075040 -2.075040 -1.430631 1.000000 0.000000 0.000000 0.000000
-8.990528 9.715205 7.115503 0.462402 0.867362 1.396580 -1.543346 -1.415946 -1.415946 -2.619919 1.000000 0.000000 0.000000 0.000000
-0.745872 -6.633281 1.759627 -1.579860 -0.072309 -1.096636 1.196592 -2.013064 -2.013064 -2.013064 1.000000 0.000000 0.000000 0.000000
-1.665600 -3.104015 0.001293 0.405091 0.308761 -0.798237 1.494853 -2.020548 -2.020548 -4.175129 1.000000 0.000000 0.000000 0.000000
9.092940 7.016666 6.530313 1.412708 0.863501 1.421435 -1.661631 -1.018573 -1.018573 -2.222546 1.000000 0.000000 0.000000 0.000000
0.069638 -6.956069 1.502419 -0.953971 0.474845 -1.214842 1.793861 -2.790616 -2.790616 -2.790616 1.000000 0.000000 0.000000 0.000000
4.819010 3.361914 1.415975 0.185330 0.185330 0.116779 3.980300 -2.220546 -2.220546 -1.610345 1.000000 0.000000 0.000000 0.000000
-5.980267 2.057135 1.510568 -0.896286 0.110078 -1.490908 1.172542 -2.725989 -2.725989 -2.725989 1.000000 0.000000 0.000000 0.000000
-6.557346 -3.448099 0.141685 0.648724 -0.107698 -0.380519 1.650104 -2.391677 -2.391677 -3.373936 1.000000 0.000000 0.000000 0.000000
-4.659084 -3.153128 -0.035346 0.154016 -0.102558 -0.966121 3.372422 -1.688308 -1.688308 -3.590460 1.000000 0.000000 0.000000 0.000000
1.194244 0.246128 0.035519 0.347883 -0.045334 -0.465057 2.289764 -1.788920 -1.788920 -3.184106 1.000000 0.000000 0.000000 0.000000
1.991474 -5.304854 1.627418 -1.586196 0.373366 -1.505065 2.479895 -2.531960 -2.531960 -2.531960 1.000000 0.000000 0.000000 0.000000
2.035690 -5.589796 1.767471 -0.952834 0.177353 -1.582141 1.039634 -1.914299 -1.914299 -1.914299 1.000000 0.000000 0.000000 0.000000
