ply
format ascii 1.0
element vertex 200
property float x
property float y
property float z
property float f_dc_0
property float f_dc_1
property float f_dc_2
property float opacity
property float scale_0
property float scale_1
property float scale_2
property float rot_0
property float rot_1
property float rot_2
property float rot_3
end_header
-0.182456 -0.218942 -0.866897 -1.063472 -0.599971 1.772454 2.455207 -2.993955 -2.831241 -2.663084 1.000000 0.000000 0.000000 0.000000
0.459720 0.279492 -0.085058 1.772454 0.415840 -1.063472 1.747258 -3.002205 -3.643640 -3.360542 1.000000 0.000000 0.000000 0.000000
-0.486760 -0.668945 0.074662 -1.063472 -0.777913 1.772454 2.802841 -2.488506 -3.168740 -2.221676 1.000000 0.000000 0.000000 0.000000
-0.222412 -0.658228 -0.234263 -0.527946 -1.063472 1.772454 1.392420 -2.152880 -2.675869 -2.669193 1.000000 0.000000 0.000000 0.000000
0.962209 -1.369188 0.354887 1.772454 -1.063472 1.531496 1.822522 -2.346789 -1.959410 -2.476289 1.000000 0.000000 0.000000 0.000000
-1.017221 -0.344996 0.940635 -1.063472 0.886954 1.772454 1.929605 -2.229766 -2.043642 -2.835224 1.000000 0.000000 0.000000 0.000000
0.077798 0.556620 -0.261027 0.730564 1.772454 -1.063472 0.996147 -2.976887 -3.227950 -2.849652 1.000000 0.000000 0.000000 0.000000
-0.519391 0.590388 -0.211413 -1.063472 1.772454 -0.527502 3.943939 -2.918253 -2.780201 -2.814676 1.000000 0.000000 0.000000 0.000000
0.314888 0.582614 0.341446 1.696361 1.772454 -1.063472 5.759431 -2.746516 -2.615488 -2.691129 1.000000 0.000000 0.000000 0.000000
-0.483716 -1.110409 1.141011 -0.758084 -1.063472 1.772454 0.893588 -2.983521 -3.187532 -3.247824 1.000000 0.000000 0.000000 0.000000
0.204358 0.816831 1.607365 1.018389 1.772454 -1.063472 2.160346 -2.841793 -2.952019 -2.494983 1.000000 0.000000 0.000000 0.000000
-0.742240 0.196293 -0.409081 -1.063472 1.772454 1.072295 1.258818 -2.519211 -2.438012 -2.184295 1.000000 0.000000 0.000000 0.000000
-1.332901 0.976101 -1.120644 -1.063472 1.772454 0.060697 0.980830 -2.578900 -3.181994 -3.073772 1.000000 0.000000 0.000000 0.000000
-0.640312 -0.660303 0.661992 -1.063472 -0.396112 1.772454 1.479425 -3.332115 -2.929239 -3.303416 1.000000 0.000000 0.000000 0.000000
0.352203 -0.064716 0.373206 1.772454 -1.063472 -0.571355 2.248408 -2.355301 -2.318998 -2.620797 1.000000 0.000000 0.000000 0.000000
-0.459018 -0.561735 -0.895099 -1.063472 -0.626090 1.772454 4.265141 -2.647400 -2.328326 -2.917388 1.000000 0.000000 0.000000 0.000000
-1.431826 -0.005273 -1.201162 -1.063472 1.762481 1.772454 1.322115 -2.222419 -2.092313 -2.118987 1.000000 0.000000 0.000000 0.000000
0.638688 0.912892 0.687289 1.772454 1.537173 -1.063472 1.807885 -2.301822 -2.993826 -2.495217 1.000000 0.000000 0.000000 0.000000
0.926279 0.113924 1.560274 1.772454 -0.732065 -1.063472 1.338567 -2.255225 -2.838756 -1.934585 1.000000 0.000000 0.000000 0.000000
0.650007 -0.225062 -1.018452 1.772454 -1.063472 -0.160788 2.559072 -3.317892 -3.082160 -3.782484 1.000000 0.000000 0.000000 0.000000
-0.882372 0.138150 0.089406 -1.063472 1.772454 1.351870 1.564103 -2.220830 -2.560791 -2.182287 1.000000 0.000000 0.000000 0.000000
-0.097557 -0.769566 -0.578317 0.013007 -1.063472 1.772454 2.142474 -2.123908 -2.187807 -2.106485 1.000000 0.000000 0.000000 0.000000
0.609212 0.579365 -0.554530 1.772454 0.995481 -1.063472 1.202867 -2.489544 -2.817746 -3.049922 1.000000 0.000000 0.000000 0.000000
-1.060934 -1.145586 -1.007323 -1.063472 -0.458336 1.772454 0.950706 -2.231501 -2.535306 -2.075371 1.000000 0.000000 0.000000 0.000000
0.287387 1.257343 -1.399621 0.963021 1.772454 -1.063472 1.671692 -2.508455 -2.257993 -2.240341 1.000000 0.000000 0.000000 0.000000
0.248132 0.631458 -0.924300 1.368449 1.772454 -1.063472 1.659027 -2.686454 -2.480191 -2.526579 1.000000 0.000000 0.000000 0.000000
0.654423 -0.065326 -0.886639 1.772454 -1.063472 -0.794035 3.139720 -2.804497 -3.093972 -3.175258 1.000000 0.000000 0.000000 0.000000
-0.859704 0.287638 -0.143397 -1.063472 1.772454 0.898085 3.748089 -2.947274 -3.005824 -2.638798 1.000000 0.000000 0.000000 0.000000
-0.832713 -0.272448 -1.796679 -1.063472 0.916141 1.772454 4.668276 -2.251488 -1.896358 -1.952350 1.000000 0.000000 0.000000 0.000000
0.411727 0.709467 -0.023566 1.772454 1.766404 -1.063472 0.932542 -2.716683 -2.845684 -2.321060 1.000000 0.000000 0.000000 0.000000
-0.092815 0.968690 0.671834 0.095802 1.772454 -1.063472 4.345055 -2.687209 -2.284800 -2.632940 1.000000 0.000000 0.000000 0.000000
-0.134818 -0.670254 -0.652477 -0.183060 -1.063472 1.772454 1.934567 -2.144011 -2.102682 -1.922489 1.000000 0.000000 0.000000 0.000000
1.157474 0.434593 0.211164 1.772454 -0.090773 -1.063472 1.083892 -2.237314 -1.858345 -2.781849 1.000000 0.000000 0.000000 0.000000
0.582787 1.366126 0.287542 1.446465 1.772454 -1.063472 1.025106 -2.972634 -2.643124 -3.265375 1.000000 0.000000 0.000000 0.000000
-0.908494 -0.613408 0.269525 -1.063472 0.164158 1.772454 1.789246 -2.494587 -2.133627 -2.845196 1.000000 0.000000 0.000000 0.000000
-0.196583 -0.911469 -0.571587 -0.220775 -1.063472 1.772454 1.324920 -2.402935 -2.606058 -2.178301 1.000000 0.000000 0.000000 0.000000
1.787482 0.876279 -0.166664 1.772454 0.170889 -1.063472 0.954295 -2.123195 -2.461253 -2.390813 1.000000 0.000000 0.000000 0.000000
1.076356 -0.479824 1.385512 1.772454 -1.063472 0.072157 1.084391 -2.760543 -2.472552 -2.575275 1.000000 0.000000 0.000000 0.000000
-0.253968 -0.214650 1.443150 -1.063472 -0.127806 1.772454 2.846380 -3.483360 -3.707280 -3.332023 1.000000 0.000000 0.000000 0.000000
0.425655 -0.171848 -0.492349 1.772454 -1.063472 -0.024332 1.865762 -3.228087 -3.486407 -3.128396 1.000000 0.000000 0.000000 0.000000
-0.236220 -1.144726 -0.860372 -0.196606 -1.063472 1.772454 1.707868 -2.923253 -2.582976 -2.626038 1.000000 0.000000 0.000000 0.000000
0.756422 0.495507 -0.139859 1.772454 0.507038 -1.063472 2.607391 -3.495977 -3.367484 -3.767844 1.000000 0.000000 0.000000 0.000000
-0.062527 -1.133693 0.117990 0.205280 -1.063472 1.772454 0.957261 -3.477962 -3.153630 -3.138687 1.000000 0.000000 0.000000 0.000000
-0.979236 -0.288437 0.919309 -1.063472 0.996710 1.772454 1.036808 -3.138946 -3.351820 -2.803202 1.000000 0.000000 0.000000 0.000000
0.365777 -1.226658 1.333436 1.139287 -1.063472 1.772454 1.235954 -3.017837 -3.524017 -2.770886 1.000000 0.000000 0.000000 0.000000
1.049348 -0.935314 -0.267946 1.772454 -1.063472 0.908040 3.840274 -3.125618 -2.814752 -2.736142 1.000000 0.000000 0.000000 0.000000
0.129428 -0.322323 0.409778 1.388555 -1.063472 1.772454 1.384144 -2.340382 -1.982138 -2.076300 1.000000 0.000000 0.000000 0.000000
0.463263 -0.531740 0.559478 1.772454 -1.063472 1.249554 1.006980 -2.293985 -1.977594 -1.987535 1.000000 0.000000 0.000000 0.000000
0.158798 0.907637 0.753764 0.823546 1.772454 -1.063472 2.727043 -2.856541 -3.174551 -3.503446 1.000000 0.000000 0.000000 0.000000
0.590144 1.580658 -0.617065 1.322169 1.772454 -1.063472 1.287581 -2.145410 -2.013083 -2.251128 1.000000 0.000000 0.000000 0.000000
1.890504 -0.224964 0.138261 1.772454 -1.063472 -0.742724 4.715055 -3.209402 -3.597173 -2.829231 1.000000 0.000000 0.000000 0.000000
-0.069488 0.712811 -0.902120 0.091322 1.772454 -1.063472 1.349838 -2.347906 -2.246967 -2.336548 1.000000 0.000000 0.000000 0.000000
-0.654560 0.575645 0.135114 -1.063472 1.772454 -0.181010 0.849715 -2.366690 -2.012114 -2.328959 1.000000 0.000000 0.000000 0.000000
-0.251582 -1.293649 0.728726 -0.165675 -1.063472 1.772454 0.949388 -2.768120 -2.616053 -2.954208 1.000000 0.000000 0.000000 0.000000
-0.443341 1.043957 1.099472 -0.733070 1.772454 -1.063472 1.341798 -2.864195 -2.960274 -2.966892 1.000000 0.000000 0.000000 0.000000
-0.213251 0.722895 -0.842829 -0.422358 1.772454 -1.063472 2.233244 -2.166022 -1.827548 -2.056706 1.000000 0.000000 0.000000 0.000000
-0.156810 0.472987 0.047996 -0.512450 1.772454 -1.063472 1.578320 -2.885583 -2.808636 -2.741738 1.000000 0.000000 0.000000 0.000000
-0.795401 0.177855 -0.094922 -1.063472 1.772454 1.176708 3.488342 -2.622973 -2.363671 -3.023911 1.000000 0.000000 0.000000 0.000000
1.247920 0.735855 0.044793 1.772454 0.379371 -1.063472 2.854038 -2.810632 -2.586579 -2.651242 1.000000 0.000000 0.000000 0.000000
0.068005 0.423179 -0.322917 0.785994 1.772454 -1.063472 1.677256 -2.955823 -2.655913 -3.512992 1.000000 0.000000 0.000000 0.000000
-0.656689 0.391485 0.205458 -1.063472 1.772454 0.316620 1.721432 -2.378690 -2.674425 -2.233674 1.000000 0.000000 0.000000 0.000000
1.430615 0.049862 0.830727 1.772454 -0.969124 -1.063472 1.568319 -3.229107 -3.620836 -2.852064 1.000000 0.000000 0.000000 0.000000
-0.379240 -0.042973 -0.786036 -1.063472 1.466893 1.772454 1.635624 -2.241017 -1.977564 -2.086086 1.000000 0.000000 0.000000 0.000000
1.884190 -0.143615 0.367503 1.772454 -1.063472 -0.857456 2.028876 -2.205201 -2.006946 -2.200435 1.000000 0.000000 0.000000 0.000000
0.890894 -1.606891 0.176725 1.725420 -1.063472 1.772454 1.676212 -2.333777 -2.609278 -2.625146 1.000000 0.000000 0.000000 0.000000
-0.704322 -0.826351 0.681520 -1.063472 -0.569932 1.772454 1.279586 -2.448682 -2.997758 -2.689827 1.000000 0.000000 0.000000 0.000000
-0.166225 1.210729 -0.472443 -0.015004 1.772454 -1.063472 1.204805 -3.159342 -2.982075 -2.971685 1.000000 0.000000 0.000000 0.000000
1.187554 0.507083 -0.242813 1.772454 0.029417 -1.063472 1.163953 -2.696818 -2.780044 -2.356896 1.000000 0.000000 0.000000 0.000000
-1.418972 -0.828137 0.698055 -1.063472 0.341796 1.772454 1.476969 -2.313611 -2.995035 -2.474062 1.000000 0.000000 0.000000 0.000000
0.029807 -1.364900 1.364412 0.413622 -1.063472 1.772454 2.501611 -2.692493 -2.647393 -2.594230 1.000000 0.000000 0.000000 0.000000
0.175768 0.938658 -0.647437 0.855791 1.772454 -1.063472 1.391546 -3.423068 -3.258281 -3.523643 1.000000 0.000000 0.000000 0.000000
0.351056 0.593984 -0.045096 1.772454 1.744856 -1.063472 0.886125 -2.453372 -2.565398 -2.390968 1.000000 0.000000 0.000000 0.000000
0.664514 0.114265 0.200863 1.772454 -0.602316 -1.063472 0.920212 -2.637319 -2.766171 -2.977473 1.000000 0.000000 0.000000 0.000000
-0.423079 0.807062 0.558347 -0.953083 1.772454 -1.063472 2.935575 -2.326049 -2.610707 -2.867495 1.000000 0.000000 0.000000 0.000000
1.978870 0.242203 0.157665 1.772454 -0.733655 -1.063472 2.143323 -2.788776 -2.540953 -2.647490 1.000000 0.000000 0.000000 0.000000
0.009297 -0.349449 0.718516 0.426521 -1.063472 1.772454 1.075886 -3.447214 -3.915266 -3.290673 1.000000 0.000000 0.000000 0.000000
-1.177268 -0.500425 -0.873857 -1.063472 0.683976 1.772454 1.100409 -2.312425 -2.210548 -2.090942 1.000000 0.000000 0.000000 0.000000
1.126833 0.987574 1.243411 1.772454 0.885368 -1.063472 0.884257 -3.225677 -3.433984 -3.062413 1.000000 0.000000 0.000000 0.000000
1.485738 -0.399708 -0.325026 1.772454 -1.063472 -0.351760 2.279730 -3.301180 -3.181405 -3.808841 1.000000 0.000000 0.000000 0.000000
0.140703 -0.989481 0.981254 0.737016 -1.063472 1.772454 5.324600 -3.196749 -2.947832 -3.362563 1.000000 0.000000 0.000000 0.000000
-1.094964 0.528947 -0.325887 -1.063472 1.772454 0.553766 3.052090 -2.801634 -2.522238 -3.303270 1.000000 0.000000 0.000000 0.000000
1.627086 -0.409193 0.472666 1.772454 -1.063472 -0.396251 1.590214 -2.368108 -2.158013 -1.985929 1.000000 0.000000 0.000000 0.000000
-0.129544 1.021197 0.805793 0.012778 1.772454 -1.063472 1.590400 -2.610269 -2.402421 -2.873720 1.000000 0.000000 0.000000 0.000000
0.281817 -0.379235 0.416717 1.772454 -1.063472 1.459711 1.226236 -2.213231 -2.249160 -2.108572 1.000000 0.000000 0.000000 0.000000
-0.429831 0.408806 -1.674462 -1.063472 1.772454 -0.286611 1.172718 -3.071198 -2.810502 -3.245148 1.000000 0.000000 0.000000 0.000000
0.611382 -0.571817 0.367926 1.772454 -1.063472 0.972950 4.145985 -3.476559 -4.011655 -3.277647 1.000000 0.000000 0.000000 0.000000
-1.311956 0.094318 0.793037 -1.063472 1.772454 1.578100 1.713165 -2.428928 -2.172015 -2.951399 1.000000 0.000000 0.000000 0.000000
0.157270 0.871861 0.367966 0.837794 1.772454 -1.063472 1.673021 -2.496898 -2.466445 -2.574315 1.000000 0.000000 0.000000 0.000000
-0.037348 -1.462097 -0.525996 0.285330 -1.063472 1.772454 1.239179 -2.911713 -3.388692 -3.279039 1.000000 0.000000 0.000000 0.000000
1.197952 1.118661 0.117869 1.772454 0.970818 -1.063472 1.179820 -3.064793 -3.080721 -2.862191 1.000000 0.000000 0.000000 0.000000
0.913419 -0.135232 0.045553 1.772454 -1.063472 -0.665428 1.143029 -3.242980 -3.561145 -3.629464 1.000000 0.000000 0.000000 0.000000
0.905750 0.080731 0.062226 1.772454 -0.822730 -1.063472 1.866111 -2.139731 -1.959564 -2.607689 1.000000 0.000000 0.000000 0.000000
1.225388 -1.330453 -0.033002 1.772454 -1.063472 1.174734 1.664335 -2.505120 -2.566497 -2.884386 1.000000 0.000000 0.000000 0.000000
0.543431 0.181783 1.073190 1.772454 -0.189269 -1.063472 1.517786 -2.263457 -2.818439 -2.141730 1.000000 0.000000 0.000000 0.000000
0.904046 0.316580 -0.943139 1.772454 -0.151284 -1.063472 6.304588 -2.858666 -3.339203 -2.624034 1.000000 0.000000 0.000000 0.000000
-0.535559 -0.422570 0.487590 -1.063472 -0.036600 1.772454 1.622607 -2.563540 -2.622525 -2.255933 1.000000 0.000000 0.000000 0.000000
1.316059 -0.082540 -0.557212 1.772454 -1.063472 -0.893849 2.470209 -2.466673 -2.096772 -2.812283 1.000000 0.000000 0.000000 0.000000
0.168910 0.675908 0.236017 1.017669 1.772454 -1.063472 0.956994 -3.086900 -3.774710 -3.137663 1.000000 0.000000 0.000000 0.000000
-0.639944 -0.427953 -0.353696 -1.063472 0.176204 1.772454 2.324628 -2.368447 -2.415506 -2.196694 1.000000 0.000000 0.000000 0.000000
1.043705 -0.540821 0.827556 1.772454 -1.063472 0.231224 3.896962 -2.413444 -2.491256 -2.369846 1.000000 0.000000 0.000000 0.000000
-0.601995 -0.803198 1.421228 -1.063472 -0.739633 1.772454 1.097422 -3.312448 -3.526122 -3.090139 1.000000 0.000000 0.000000 0.000000
-0.564257 -0.262093 -0.290251 -1.063472 0.594857 1.772454 2.312660 -2.386173 -2.019673 -2.385701 1.000000 0.000000 0.000000 0.000000
-0.304268 0.011868 -0.469730 -1.063472 1.772454 1.666876 1.365774 -2.675352 -2.962544 -3.200738 1.000000 0.000000 0.000000 0.000000
0.980558 -0.239252 0.915688 1.772454 -1.063472 -0.415369 8.961206 -2.157872 -1.998920 -2.419872 1.000000 0.000000 0.000000 0.000000
1.002433 0.258937 0.617993 1.772454 -0.378908 -1.063472 3.656278 -2.423219 -2.806694 -2.341335 1.000000 0.000000 0.000000 0.000000
-0.421754 -0.477083 -0.010539 -1.063472 -0.520983 1.772454 1.386248 -2.791706 -2.634589 -2.485890 1.000000 0.000000 0.000000 0.000000
-0.413159 0.753734 0.361134 -1.003413 1.772454 -1.063472 2.826096 -2.162237 -2.113355 -2.208463 1.000000 0.000000 0.000000 0.000000
-0.721315 1.680832 -0.691097 -0.743305 1.772454 -1.063472 1.769367 -2.712423 -2.314910 -2.566022 1.000000 0.000000 0.000000 0.000000
-0.742129 -0.203493 -0.135572 -1.063472 1.047700 1.772454 2.540504 -2.771627 -2.653481 -2.540523 1.000000 0.000000 0.000000 0.000000
0.541504 1.802751 0.186199 1.144723 1.772454 -1.063472 2.307242 -2.667430 -3.143168 -2.280029 1.000000 0.000000 0.000000 0.000000
-0.487772 -0.397729 -0.384571 -1.063472 -0.080058 1.772454 1.863251 -2.531049 -3.053257 -2.130759 1.000000 0.000000 0.000000 0.000000
0.575788 -0.350707 -0.052138 1.772454 -1.063472 0.418074 1.730784 -2.254816 -2.058753 -2.245983 1.000000 0.000000 0.000000 0.000000
-0.214655 1.447879 1.319058 -0.044097 1.772454 -1.063472 1.860709 -2.957747 -3.081514 -2.605776 1.000000 0.000000 0.000000 0.000000
-1.168544 -0.060560 1.362571 -1.063472 1.632230 1.772454 2.699580 -2.902929 -2.991824 -2.542289 1.000000 0.000000 0.000000 0.000000
-0.708492 -0.034472 0.592541 -1.063472 1.640793 1.772454 1.955833 -2.866987 -2.462254 -2.877401 1.000000 0.000000 0.000000 0.000000
0.603618 0.815575 0.078526 1.772454 1.464961 -1.063472 1.840679 -2.529830 -2.575513 -2.726116 1.000000 0.000000 0.000000 0.000000
0.468962 1.155773 0.536286 1.398355 1.772454 -1.063472 2.628340 -2.975525 -3.584980 -2.756627 1.000000 0.000000 0.000000 0.000000
-0.234382 -0.811080 0.672094 -0.407332 -1.063472 1.772454 2.867657 -2.410928 -2.018333 -2.415610 1.000000 0.000000 0.000000 0.000000
1.347951 0.319314 0.006348 1.772454 -0.433563 -1.063472 3.238485 -2.223099 -2.284649 -2.197479 1.000000 0.000000 0.000000 0.000000
-0.962206 0.266950 0.496035 -1.063472 1.772454 1.039561 1.079019 -2.419902 -2.450887 -2.035182 1.000000 0.000000 0.000000 0.000000
-0.718749 1.155526 0.568384 -1.063472 1.772454 -0.974517 3.071516 -2.238120 -1.931119 -2.365942 1.000000 0.000000 0.000000 0.000000
-0.599468 1.346553 0.717001 -0.779786 1.772454 -1.063472 0.899125 -2.220872 -2.785765 -2.097627 1.000000 0.000000 0.000000 0.000000
0.144337 -0.078256 1.611809 1.772454 -1.063472 0.281963 0.992254 -2.672817 -2.547288 -2.356125 1.000000 0.000000 0.000000 0.000000
-1.603855 0.592512 0.719797 -1.063472 1.772454 0.814113 2.731205 -3.377309 -3.608778 -3.511022 1.000000 0.000000 0.000000 0.000000
0.821324 1.066709 0.084080 1.772454 1.413479 -1.063472 1.103927 -2.289405 -2.835912 -1.973981 1.000000 0.000000 0.000000 0.000000
-1.167267 -1.092146 -0.968904 -1.063472 -0.264485 1.772454 1.645965 -3.149336 -3.431729 -3.429941 1.000000 0.000000 0.000000 0.000000
1.465866 0.086654 1.128248 1.772454 -0.903570 -1.063472 1.084755 -2.397061 -2.457098 -2.564810 1.000000 0.000000 0.000000 0.000000
-0.930575 -0.570834 0.315798 -1.063472 0.282373 1.772454 3.022745 -2.946774 -3.304568 -3.069288 1.000000 0.000000 0.000000 0.000000
-1.148781 0.121656 -0.713688 -1.063472 1.772454 1.486730 6.120570 -2.504297 -2.733419 -2.113644 1.000000 0.000000 0.000000 0.000000
-0.656344 -1.009243 -0.608404 -1.063472 -0.919915 1.772454 2.489475 -2.388994 -2.988570 -2.287876 1.000000 0.000000 0.000000 0.000000
-0.547010 0.011250 0.751156 -1.063472 1.772454 1.716767 2.012656 -2.283789 -2.443581 -2.155732 1.000000 0.000000 0.000000 0.000000
-1.071786 -1.017828 0.562231 -1.063472 -0.284577 1.772454 2.976500 -2.415459 -2.294793 -2.076558 1.000000 0.000000 0.000000 0.000000
-0.650548 -0.853429 -0.443748 -1.063472 -0.717613 1.772454 2.438385 -2.499067 -3.026473 -2.728341 1.000000 0.000000 0.000000 0.000000
-0.008410 -0.531313 -0.452962 0.311626 -1.063472 1.772454 4.752869 -2.544062 -2.513676 -2.198002 1.000000 0.000000 0.000000 0.000000
0.735268 -1.328090 -0.844303 1.723777 -1.063472 1.772454 2.786584 -2.612291 -2.391903 -2.788175 1.000000 0.000000 0.000000 0.000000
0.201472 0.178004 0.658360 1.772454 0.896204 -1.063472 3.128227 -2.145709 -1.943408 -1.753706 1.000000 0.000000 0.000000 0.000000
0.814103 -0.169821 0.638819 1.772454 -1.063472 -0.506549 0.867262 -2.291038 -2.255119 -2.337306 1.000000 0.000000 0.000000 0.000000
-0.602426 -1.143483 0.474571 -0.958627 -1.063472 1.772454 4.004185 -2.263196 -2.760207 -2.572684 1.000000 0.000000 0.000000 0.000000
0.848204 0.134477 1.031372 1.772454 -0.637664 -1.063472 1.188151 -2.185931 -2.760022 -1.905383 1.000000 0.000000 0.000000 0.000000
0.860524 -0.550761 -0.440105 1.772454 -1.063472 0.478347 4.111346 -3.156372 -3.374075 -3.163775 1.000000 0.000000 0.000000 0.000000
0.364569 0.255171 0.544871 1.772454 0.590304 -1.063472 2.210022 -2.647502 -2.429861 -2.278719 1.000000 0.000000 0.000000 0.000000
-0.559261 0.311465 0.354577 -1.063472 1.772454 0.396351 0.993134 -2.698007 -2.708717 -2.794390 1.000000 0.000000 0.000000 0.000000
0.358346 -0.112658 -0.986712 1.772454 -1.063472 -0.238584 4.195926 -2.660626 -2.356492 -3.172527 1.000000 0.000000 0.000000 0.000000
-0.770310 -1.801164 0.174908 -0.739945 -1.063472 1.772454 1.512571 -2.776105 -3.147446 -3.250663 1.000000 0.000000 0.000000 0.000000
0.859689 -1.214544 -0.135318 1.772454 -1.063472 1.522328 1.984347 -2.433225 -3.084544 -2.181070 1.000000 0.000000 0.000000 0.000000
0.036102 0.892953 -1.007662 0.463920 1.772454 -1.063472 2.579755 -3.319389 -3.665891 -3.653532 1.000000 0.000000 0.000000 0.000000
0.462905 -0.494838 -0.247331 1.772454 -1.063472 1.153733 0.851352 -2.197795 -1.891483 -2.636783 1.000000 0.000000 0.000000 0.000000
0.452007 0.481291 -0.379876 1.772454 1.148416 -1.063472 0.884404 -2.413570 -3.077430 -2.158940 1.000000 0.000000 0.000000 0.000000
0.053976 0.710463 -0.268350 0.559841 1.772454 -1.063472 2.477025 -3.360557 -3.334806 -3.140887 1.000000 0.000000 0.000000 0.000000
-1.043720 0.156943 0.706084 -1.063472 1.772454 1.368266 1.743662 -3.223515 -2.855118 -3.833489 1.000000 0.000000 0.000000 0.000000
0.180489 -0.851933 0.941069 0.919867 -1.063472 1.772454 4.518086 -2.641928 -3.220274 -2.663170 1.000000 0.000000 0.000000 0.000000
-0.934456 0.664520 0.459811 -1.063472 1.772454 0.098417 0.954639 -2.190390 -2.733756 -2.087565 1.000000 0.000000 0.000000 0.000000
1.185884 0.519224 -0.652280 1.772454 0.054147 -1.063472 1.371086 -2.533861 -2.131983 -2.503761 1.000000 0.000000 0.000000 0.000000
-0.607553 0.181841 0.136795 -1.063472 1.772454 0.984896 3.074720 -2.373435 -2.232877 -2.135235 1.000000 0.000000 0.000000 0.000000
-0.176253 -0.951195 -0.671025 -0.141684 -1.063472 1.772454 1.396824 -2.984507 -3.032124 -3.072257 1.000000 0.000000 0.000000 0.000000
1.224878 0.833392 -0.219365 1.772454 0.554466 -1.063472 1.076292 -2.753773 -2.401017 -3.320934 1.000000 0.000000 0.000000 0.000000
0.184297 -0.326570 -0.524608 1.745885 -1.063472 1.772454 2.815933 -2.338299 -2.283460 -2.255370 1.000000 0.000000 0.000000 0.000000
-0.594959 -0.242448 -0.232822 -1.063472 0.724527 1.772454 2.192812 -2.783466 -2.560096 -2.470049 1.000000 0.000000 0.000000 0.000000
-0.088614 -0.481958 1.312092 -0.137928 -1.063472 1.772454 1.931140 -2.786312 -3.124952 -2.640709 1.000000 0.000000 0.000000 0.000000
0.176992 1.084165 -1.385387 0.792729 1.772454 -1.063472 2.568124 -2.763344 -2.691861 -2.495440 1.000000 0.000000 0.000000 0.000000
0.306324 -0.449798 1.639692 1.772454 -1.063472 1.571299 2.119768 -2.462500 -3.104472 -2.105467 1.000000 0.000000 0.000000 0.000000
0.326625 -0.598926 -0.358421 1.706560 -1.063472 1.772454 1.341250 -2.372547 -2.547110 -3.053557 1.000000 0.000000 0.000000 0.000000
0.746460 -0.796274 0.146062 1.772454 -1.063472 1.150886 2.090247 -3.151948 -3.785588 -2.931920 1.000000 0.000000 0.000000 0.000000
0.216950 0.974400 -0.162154 0.947774 1.772454 -1.063472 2.395438 -2.759794 -2.515410 -2.694387 1.000000 0.000000 0.000000 0.000000
0.282951 0.167234 -0.658663 1.772454 0.382119 -1.063472 2.221805 -2.458006 -2.716644 -2.307917 1.000000 0.000000 0.000000 0.000000
-0.899954 0.081297 -0.105451 -1.063472 1.772454 1.528480 1.015757 -2.323350 -2.396014 -2.567658 1.000000 0.000000 0.000000 0.000000
-0.651619 -1.351251 -0.040120 -0.862355 -1.063472 1.772454 1.506750 -3.378823 -3.284126 -4.056713 1.000000 0.000000 0.000000 0.000000
-0.182947 0.546422 -0.407652 -0.520438 1.772454 -1.063472 1.376552 -2.937525 -3.615330 -2.716773 1.000000 0.000000 0.000000 0.000000
0.679737 1.348581 -0.372676 1.618835 1.772454 -1.063472 2.944571 -2.589952 -2.322830 -3.148437 1.000000 0.000000 0.000000 0.000000
0.137320 -0.162295 -0.483432 1.772454 -1.063472 1.288684 3.143025 -2.181212 -2.108185 -2.110381 1.000000 0.000000 0.000000 0.000000
-0.167049 -0.642212 -0.110744 -0.334657 -1.063472 1.772454 1.370311 -3.445868 -3.182487 -3.334214 1.000000 0.000000 0.000000 0.000000
0.169286 -0.298855 0.530753 1.750207 -1.063472 1.772454 1.225300 -2.244282 -2.159141 -2.220602 1.000000 0.000000 0.000000 0.000000
-0.740586 0.568765 -0.382968 -1.063472 1.772454 -0.001134 1.100959 -2.813808 -2.803379 -3.301525 1.000000 0.000000 0.000000 0.000000
-0.596753 -0.037364 0.831381 -1.063472 1.603114 1.772454 2.857101 -2.349005 -2.075140 -2.655165 1.000000 0.000000 0.000000 0.000000
0.676637 0.888854 -0.849818 1.772454 1.428358 -1.063472 2.160573 -2.318518 -2.708386 -2.077261 1.000000 0.000000 0.000000 0.000000
-1.410639 0.052166 0.834489 -1.063472 1.772454 1.672352 3.760010 -2.653541 -2.591044 -2.526646 1.000000 0.000000 0.000000 0.000000
-0.700038 -0.695843 1.049633 -1.063472 -0.346354 1.772454 0.946873 -3.133015 -3.192545 -3.352640 1.000000 0.000000 0.000000 0.000000
-0.089666 0.573738 -1.119339 -0.065345 1.772454 -1.063472 1.625659 -2.848404 -3.433792 -2.561950 1.000000 0.000000 0.000000 0.000000
1.082176 0.566305 1.298872 1.772454 0.242148 -1.063472 1.751329 -2.460986 -2.498987 -2.408093 1.000000 0.000000 0.000000 0.000000
0.186359 -0.692869 0.929994 1.066044 -1.063472 1.772454 2.148743 -2.274159 -2.470749 -2.298832 1.000000 0.000000 0.000000 0.000000
0.184200 0.256435 -0.574167 1.772454 1.503513 -1.063472 1.405349 -2.198933 -2.004753 -2.194395 1.000000 0.000000 0.000000 0.000000
0.466969 0.882742 -0.583538 1.672194 1.772454 -1.063472 1.789161 -2.665739 -3.083156 -2.801728 1.000000 0.000000 0.000000 0.000000
-0.203287 0.969555 -0.183839 -0.205212 1.772454 -1.063472 2.695626 -2.479206 -2.341790 -3.048523 1.000000 0.000000 0.000000 0.000000
0.717156 0.484131 0.330437 1.772454 0.544599 -1.063472 2.163994 -2.352448 -2.011455 -2.035246 1.000000 0.000000 0.000000 0.000000
-0.351272 0.608168 0.117845 -1.063472 1.772454 -1.062984 4.626814 -2.788980 -2.607926 -2.903317 1.000000 0.000000 0.000000 0.000000
-0.384624 -0.261536 0.844795 -1.063472 0.155274 1.772454 2.708026 -2.750418 -2.477963 -2.593315 1.000000 0.000000 0.000000 0.000000
0.639100 -1.180748 0.729753 1.698022 -1.063472 1.772454 2.130236 -2.559086 -2.638772 -2.707786 1.000000 0.000000 0.000000 0.000000
-0.410367 0.479882 -0.525193 -1.063472 1.772454 -0.565523 1.702656 -2.160303 -2.479761 -2.610402 1.000000 0.000000 0.000000 0.000000
0.417976 0.220182 0.448936 1.772454 0.249535 -1.063472 2.955780 -2.308817 -1.984069 -2.929183 1.000000 0.000000 0.000000 0.000000
-0.305712 0.504093 0.371006 -1.063472 1.772454 -1.005091 1.091554 -2.750361 -2.464171 -2.510480 1.000000 0.000000 0.000000 0.000000
0.311658 -0.801190 -0.773615 1.359153 -1.063472 1.772454 2.229972 -2.703402 -3.007850 -2.760821 1.000000 0.000000 0.000000 0.000000
-0.221655 0.993742 0.583261 -0.239827 1.772454 -1.063472 1.342132 -2.550265 -2.281289 -2.581739 1.000000 0.000000 0.000000 0.000000
0.944077 -1.593755 -0.507674 1.772454 -1.063472 1.742165 1.647139 -2.132002 -2.378195 -2.257710 1.000000 0.000000 0.000000 0.000000
-0.613729 -0.106953 1.608939 -1.063472 1.305210 1.772454 1.053882 -2.281672 -2.569350 -2.149610 1.000000 0.000000 0.000000 0.000000
0.457050 -0.462150 0.071327 1.772454 -1.063472 1.078498 3.063219 -2.243088 -2.485079 -2.009505 1.000000 0.000000 0.000000 0.000000
-0.060256 0.417897 0.584470 -0.033316 1.772454 -1.063472 4.114220 -2.668264 -2.993942 -2.718371 1.000000 0.000000 0.000000 0.000000
-0.109439 0.151458 -0.548954 -1.063472 1.772454 -0.786940 1.212457 -2.587862 -2.186053 -2.721493 1.000000 0.000000 0.000000 0.000000
0.878611 0.157256 1.515443 1.772454 -0.583846 -1.063472 2.706587 -2.424793 -2.874838 -2.664473 1.000000 0.000000 0.000000 0.000000
0.312991 -0.571353 0.277712 1.711679 -1.063472 1.772454 1.618444 -2.369812 -3.052512 -2.915875 1.000000 0.000000 0.000000 0.000000
-0.036557 0.981705 0.886451 0.253692 1.772454 -1.063472 1.801500 -2.349141 -2.841493 -2.587269 1.000000 0.000000 0.000000 0.000000
